4.999886,4.999886,4.999886,4.999886,4.999886,4.999886,4.999886,4.999886,4.999886,4.999886,4.999886,4.999886,4.999886,4.999886,4.999886,4.999886,4.999886,4.999886,4.999886,4.999886,4.999886,4.999886,4.999886,4.999886,4.999886,4.999886,4.999886,4.999886,4.999886,4.999886,4.999886,4.999886,4.999886,4.999886,4.999886,0.481874,0.477702,0.474976,0.473005,0.471173,0.469544,0.467943,0.466361,0.464798,0.463244,0.461714,0.381633,0.381827,0.382020,0.382214,0.382407,0.382601,0.382795,0.382990,0.383184,0.383333,0.383480,0.383629,0.383776,0.383925,0.384073,0.384220,0.384547,0.384965,0.385381,0.385802,0.386251,0.386716,0.387180,0.387651,0.388129,0.388608,0.389094,0.389584,0.389828,0.389985,0.390220,0.390345,0.390471,0.390601,0.390733,0.391001,0.391235,0.391397,0.391559,0.391722,0.391884,0.392047,0.392205,0.392265,0.392325,0.392475,0.392638,0.392802,0.392965,0.393129,0.393292,0.393456,0.393627,0.393837,0.394047,0.394255,0.394465,0.394676,0.400415,0.400367,0.400316,0.400269,0.400220,0.400179,0.400137,0.400096,0.400055,0.400014,0.399973,0.399931,0.399890,0.399849,0.399398,0.398829,0.398247,0.397667,0.397087,0.396539,0.396000,0.395486,0.394910,0.394333,0.393791,0.393266,0.392716,0.392199,0.391686,0.391174,0.390553,0.389950,0.389432,0.388915,0.388330,0.387711,0.387094,0.386565,0.386027,0.385432,0.384840,0.384249,0.383706,0.383138,0.382610,0.382097,0.381583,0.381004,0.380541,0.380079,0.379616,0.379033,0.378453,0.378027,0.377590,0.376980,0.376373,0.375768,0.375164,0.374596,0.374012,0.373430,0.372848,0.372270,0.371654,0.371036,0.370444,0.369855,0.369260,0.368612,0.368039,0.367518,0.366994,0.366454,0.365915,0.365568,0.365240,0.364844,0.364433,0.364023,0.363613,0.363348,0.363045,0.362741,0.362452,0.362207,0.361944,0.361716,0.361549,0.361382,0.361214,0.360989,0.360784,0.360674,0.360563,0.360435,0.360200,0.360087,0.360032,0.359979,0.359856,0.359651,0.359588,0.359580,0.359572,0.359530,0.359365,0.359264,0.359314,0.359364,0.359413,0.359418,0.359296,0.359397,0.359624,0.359851,0.360078,0.360814,4.999886,4.999886,4.999886,4.999886,4.999886,4.999886,4.999886,4.999886,4.999886,4.999886,4.999886,4.999886,4.999886,4.999886,4.999886,4.999886,4.999886,4.999886,4.999886,4.999886,4.999886,4.999886,4.999886,4.999886,4.999886,4.999886,4.999886,4.999886,4.999886,4.999886,4.999886,4.999886,4.999886,4.999886,4.999886,4.999886,4.999886,4.999886,4.999886,4.999886,4.999886,4.999886,4.999886,4.999886,4.999886,4.999886,4.999886,4.999886,4.999886,4.999886,4.999886,4.999886,4.999886,4.999886,4.999886,4.999886,4.999886,4.999886,4.999886,4.999886,4.999886,4.999886,4.999886,4.999886,4.999886,4.999886,4.999886,4.999886,4.999886,4.999886,4.999886,4.999886,4.999886,4.999886,0.346241,0.345262,0.344697,0.344321,0.344153,0.344275,4.999886,4.999886,4.999886,4.999886,4.999886,4.999886,4.999886,4.999886,4.999886,4.999886,4.999886,4.999886,4.999886,4.999886,4.999886,4.999886,4.999886,4.999886,4.999886,4.999886,4.999886,4.999886,4.999886,4.999886,4.999886,4.999886,4.999886,4.999886,4.999886
4.999886,4.999886,4.999886,4.999886,4.999886,4.999886,4.999886,4.999886,4.999886,4.999886,4.999886,4.999886,4.999886,4.999886,4.999886,4.999886,4.999886,4.999886,4.999886,4.999886,4.999886,4.999886,4.999886,4.999886,4.999886,4.999886,4.999886,4.999886,4.999886,4.999886,4.999886,4.999886,4.999886,4.999886,0.484358,0.479176,0.476483,0.474061,0.472095,0.470391,0.468765,0.467178,0.465628,0.464081,0.462549,0.460992,0.381325,0.381510,0.381703,0.381896,0.382090,0.382285,0.382476,0.382624,0.382770,0.382917,0.383065,0.383212,0.383361,0.383508,0.383657,0.383804,0.383953,0.384370,0.384828,0.385288,0.385750,0.386213,0.386676,0.387141,0.387615,0.388093,0.388579,0.389068,0.389559,0.389578,0.389937,0.390063,0.390193,0.390322,0.390524,0.390789,0.391057,0.391241,0.391403,0.391565,0.391727,0.391806,0.391867,0.391928,0.391988,0.392061,0.392224,0.392386,0.392549,0.392712,0.392881,0.393089,0.393298,0.393506,0.393716,0.393925,0.394133,0.394344,0.400373,0.400324,0.400273,0.400226,0.400176,0.400131,0.400090,0.400049,0.400008,0.399966,0.399925,0.399884,0.399843,0.399794,0.399531,0.398965,0.398383,0.397801,0.397222,0.396646,0.396070,0.395532,0.395018,0.394504,0.393993,0.393419,0.392824,0.392308,0.391793,0.391232,0.390602,0.389975,0.389443,0.388903,0.388282,0.387664,0.387047,0.386483,0.385895,0.385299,0.384732,0.384178,0.383585,0.383068,0.382552,0.382038,0.381497,0.380889,0.380394,0.379933,0.379417,0.378836,0.378255,0.377778,0.377259,0.376650,0.376044,0.375544,0.375062,0.374461,0.373877,0.373296,0.372714,0.372126,0.371472,0.370853,0.370263,0.369672,0.369040,0.368393,0.367818,0.367296,0.366761,0.366221,0.365684,0.365296,0.364928,0.364517,0.364107,0.363696,0.363299,0.362985,0.362739,0.362492,0.362246,0.362001,0.361686,0.361406,0.361238,0.361071,0.360890,0.360625,0.360368,0.360257,0.360146,0.359951,0.359717,0.359532,0.359479,0.359400,0.359196,0.358992,0.358840,0.358832,0.358789,0.358624,0.358459,0.358294,0.358301,0.358352,0.358256,0.358134,0.358014,0.357919,0.358143,0.358369,0.358544,0.358573,0.358604,0.359067,0.361668,4.999886,4.999886,4.999886,4.999886,4.999886,4.999886,4.999886,4.999886,4.999886,4.999886,4.999886,4.999886,4.999886,4.999886,4.999886,4.999886,4.999886,4.999886,4.999886,4.999886,4.999886,4.999886,4.999886,4.999886,4.999886,4.999886,4.999886,4.999886,4.999886,4.999886,4.999886,4.999886,4.999886,4.999886,4.999886,4.999886,4.999886,4.999886,4.999886,4.999886,4.999886,4.999886,4.999886,4.999886,4.999886,4.999886,4.999886,4.999886,4.999886,4.999886,4.999886,4.999886,4.999886,4.999886,4.999886,4.999886,4.999886,4.999886,4.999886,4.999886,4.999886,4.999886,4.999886,4.999886,4.999886,4.999886,4.999886,4.999886,4.999886,4.999886,4.999886,0.346054,0.345305,0.344812,0.344507,0.344443,0.344823,4.999886,4.999886,4.999886,4.999886,4.999886,4.999886,4.999886,4.999886,4.999886,4.999886,4.999886,4.999886,4.999886,4.999886,4.999886,4.999886,4.999886,4.999886,4.999886,4.999886,4.999886,4.999886,4.999886,4.999886,4.999886,4.999886,4.999886,4.999886,4.999886
4.999886,4.999886,4.999886,4.999886,4.999886,4.999886,4.999886,4.999886,4.999886,4.999886,4.999886,4.999886,4.999886,4.999886,4.999886,4.999886,4.999886,4.999886,4.999886,4.999886,4.999886,4.999886,4.999886,4.999886,4.999886,4.999886,4.999886,4.999886,4.999886,4.999886,4.999886,4.999886,4.999886,0.486707,0.480930,0.477689,0.475208,0.473150,0.471285,0.469611,0.468027,0.466482,0.464939,0.463383,0.461846,0.460271,0.458725,0.381194,0.381388,0.381581,0.381770,0.381917,0.382063,0.382211,0.382356,0.382504,0.382651,0.382807,0.382974,0.383141,0.383308,0.383472,0.383634,0.383872,0.384330,0.384789,0.385250,0.385712,0.386173,0.386635,0.387101,0.387581,0.388067,0.388554,0.389088,0.389494,0.389419,0.389785,0.389914,0.390047,0.390313,0.390579,0.390846,0.391085,0.391247,0.391347,0.391407,0.391469,0.391529,0.391590,0.391651,0.391711,0.391808,0.391971,0.392136,0.392345,0.392553,0.392760,0.392968,0.393177,0.393385,0.393593,0.393803,0.394012,0.394221,0.400281,0.400231,0.400182,0.400133,0.400084,0.400043,0.400002,0.399960,0.399919,0.399878,0.399837,0.399738,0.399619,0.399497,0.399097,0.398519,0.397939,0.397376,0.396850,0.396314,0.395735,0.395219,0.394706,0.394193,0.393571,0.392946,0.392415,0.391900,0.391282,0.390652,0.390024,0.389453,0.388855,0.388235,0.387616,0.387043,0.386435,0.385876,0.385319,0.384763,0.384212,0.383573,0.383009,0.382494,0.381980,0.381396,0.380788,0.380248,0.379787,0.379220,0.378638,0.378057,0.377529,0.376940,0.376454,0.375970,0.375486,0.374941,0.374326,0.373743,0.373161,0.372581,0.371944,0.371292,0.370671,0.370080,0.369468,0.368820,0.368175,0.367598,0.367069,0.366529,0.365989,0.365452,0.365013,0.364602,0.364242,0.363893,0.363546,0.363180,0.362778,0.362532,0.362286,0.362041,0.361763,0.361430,0.361096,0.360928,0.360761,0.360525,0.360261,0.359998,0.359842,0.359701,0.359467,0.359234,0.359002,0.358927,0.358744,0.358539,0.358336,0.358132,0.358051,0.357887,0.357722,0.357557,0.357398,0.357267,0.357176,0.357084,0.356992,0.356900,0.356809,0.356679,0.356665,0.356650,0.356637,0.356622,0.356608,0.356867,0.358167,0.359223,4.999886,4.999886,4.999886,4.999886,4.999886,4.999886,4.999886,4.999886,4.999886,4.999886,4.999886,4.999886,4.999886,4.999886,4.999886,4.999886,4.999886,4.999886,4.999886,4.999886,4.999886,4.999886,4.999886,4.999886,4.999886,4.999886,4.999886,4.999886,4.999886,4.999886,4.999886,4.999886,4.999886,4.999886,4.999886,4.999886,4.999886,4.999886,4.999886,4.999886,4.999886,4.999886,4.999886,4.999886,4.999886,4.999886,4.999886,4.999886,4.999886,4.999886,4.999886,4.999886,4.999886,4.999886,4.999886,4.999886,4.999886,4.999886,4.999886,4.999886,4.999886,4.999886,4.999886,4.999886,4.999886,4.999886,4.999886,4.999886,4.999886,0.346003,0.345361,0.344935,0.344713,0.344766,4.999886,4.999886,4.999886,4.999886,4.999886,4.999886,4.999886,4.999886,4.999886,4.999886,4.999886,4.999886,4.999886,4.999886,4.999886,4.999886,4.999886,4.999886,4.999886,4.999886,4.999886,4.999886,4.999886,4.999886,4.999886,4.999886,4.999886,4.999886,4.999886,4.999886
4.999886,4.999886,4.999886,4.999886,4.999886,4.999886,4.999886,4.999886,4.999886,4.999886,4.999886,4.999886,4.999886,4.999886,4.999886,4.999886,4.999886,4.999886,4.999886,4.999886,4.999886,4.999886,4.999886,4.999886,4.999886,4.999886,4.999886,4.999886,4.999886,4.999886,4.999886,4.999886,0.489301,0.483050,0.479180,0.476485,0.474179,0.472246,0.470538,0.468927,0.467338,0.465802,0.464245,0.462688,0.461148,0.459704,0.458254,0.380879,0.381066,0.381213,0.381359,0.381518,0.381683,0.381849,0.382014,0.382180,0.382346,0.382513,0.382679,0.382843,0.383005,0.383167,0.383329,0.383491,0.383834,0.384291,0.384749,0.385210,0.385670,0.386133,0.386596,0.387084,0.387632,0.388180,0.388729,0.389115,0.389180,0.389426,0.389636,0.389837,0.390103,0.390367,0.390634,0.390862,0.390949,0.391010,0.391071,0.391131,0.391193,0.391252,0.391314,0.391374,0.391435,0.391602,0.391809,0.392017,0.392224,0.392431,0.392640,0.392847,0.393055,0.393264,0.393472,0.393682,0.393891,0.400237,0.400188,0.400139,0.400090,0.400041,0.399995,0.399954,0.399915,0.399872,0.399803,0.399683,0.399563,0.399458,0.399356,0.399252,0.398716,0.398185,0.397655,0.397126,0.396560,0.395957,0.395422,0.394908,0.394353,0.393725,0.393099,0.392522,0.391963,0.391331,0.390701,0.390073,0.389475,0.388900,0.388326,0.387753,0.387181,0.386519,0.385909,0.385353,0.384797,0.384215,0.383564,0.382951,0.382437,0.381907,0.381296,0.380687,0.380102,0.379604,0.379019,0.378439,0.377910,0.377369,0.376883,0.376398,0.375913,0.375429,0.374810,0.374192,0.373608,0.373027,0.372417,0.371763,0.371110,0.370488,0.369897,0.369248,0.368600,0.367956,0.367376,0.366835,0.366296,0.365788,0.365309,0.364839,0.364489,0.364141,0.363792,0.363445,0.363034,0.362612,0.362325,0.362081,0.361835,0.361506,0.361172,0.360839,0.360617,0.360426,0.360161,0.359899,0.359635,0.359426,0.359219,0.358986,0.358754,0.358522,0.358331,0.358159,0.357989,0.357820,0.357646,0.357410,0.357280,0.357149,0.357019,0.356881,0.356598,0.356474,0.356383,0.356293,0.356201,0.355970,0.355712,0.355698,0.355683,0.355670,0.355599,0.355365,0.355161,0.355369,0.355577,0.355786,0.355996,0.356204,4.999886,4.999886,4.999886,4.999886,4.999886,4.999886,4.999886,4.999886,4.999886,4.999886,4.999886,4.999886,4.999886,4.999886,4.999886,4.999886,4.999886,4.999886,4.999886,4.999886,4.999886,4.999886,4.999886,4.999886,4.999886,4.999886,4.999886,4.999886,4.999886,4.999886,4.999886,4.999886,4.999886,4.999886,4.999886,4.999886,4.999886,4.999886,4.999886,4.999886,4.999886,4.999886,4.999886,4.999886,4.999886,4.999886,4.999886,4.999886,4.999886,4.999886,4.999886,4.999886,4.999886,4.999886,4.999886,4.999886,4.999886,4.999886,4.999886,4.999886,4.999886,4.999886,4.999886,4.999886,4.999886,0.346998,0.346000,0.345442,0.345083,0.344948,0.345151,4.999886,4.999886,4.999886,4.999886,4.999886,4.999886,4.999886,4.999886,4.999886,4.999886,4.999886,4.999886,4.999886,4.999886,4.999886,4.999886,4.999886,4.999886,4.999886,4.999886,4.999886,4.999886,4.999886,4.999886,4.999886,4.999886,4.999886,4.999886,4.999886,4.999886
4.999886,4.999886,4.999886,4.999886,4.999886,4.999886,4.999886,4.999886,4.999886,4.999886,4.999886,4.999886,4.999886,4.999886,4.999886,4.999886,4.999886,4.999886,4.999886,4.999886,4.999886,4.999886,4.999886,4.999886,4.999886,4.999886,4.999886,4.999886,4.999886,4.999886,4.999886,4.999886,0.484622,0.480630,0.477702,0.475389,0.473379,0.471512,0.469868,0.468259,0.466658,0.465114,0.463564,0.462127,0.460674,0.459233,0.457776,0.380566,0.380731,0.380896,0.381061,0.381225,0.381391,0.381556,0.381721,0.381886,0.382053,0.382216,0.382378,0.382540,0.382700,0.382862,0.383025,0.383187,0.383350,0.383794,0.384253,0.384711,0.385173,0.385692,0.386210,0.386731,0.387276,0.387823,0.388354,0.388697,0.389042,0.388954,0.389362,0.389627,0.389892,0.390108,0.390297,0.390463,0.390608,0.390674,0.390735,0.390795,0.390856,0.390915,0.390977,0.391114,0.391274,0.391435,0.391603,0.391771,0.391940,0.392108,0.392311,0.392518,0.392727,0.392934,0.393143,0.393351,0.393559,0.393769,0.400145,0.400096,0.400047,0.399998,0.399950,0.399907,0.399866,0.399747,0.399642,0.399538,0.399435,0.399333,0.399229,0.399090,0.398939,0.398465,0.397934,0.397405,0.396806,0.396202,0.395625,0.395109,0.394507,0.393877,0.393251,0.392630,0.392031,0.391461,0.390894,0.390328,0.389688,0.389040,0.388467,0.387892,0.387317,0.386617,0.385942,0.385385,0.384831,0.384206,0.383557,0.382909,0.382378,0.381806,0.381196,0.380588,0.379981,0.379442,0.378937,0.378434,0.377932,0.377342,0.376826,0.376341,0.375857,0.375298,0.374677,0.374061,0.373474,0.372891,0.372235,0.371581,0.370929,0.370304,0.369676,0.369029,0.368382,0.367755,0.367217,0.366735,0.366253,0.365776,0.365286,0.364754,0.364387,0.364040,0.363692,0.363311,0.362887,0.362467,0.362120,0.361875,0.361580,0.361248,0.360916,0.360583,0.360307,0.360062,0.359799,0.359538,0.359318,0.359066,0.358870,0.358674,0.358479,0.358263,0.357978,0.357809,0.357638,0.357468,0.357209,0.356901,0.356773,0.356643,0.356513,0.356272,0.355990,0.355776,0.355686,0.355594,0.355392,0.355134,0.354877,0.354736,0.354722,0.354577,0.354344,0.354111,0.353879,0.353853,0.353917,0.353859,0.353799,0.353738,0.353679,0.354131,0.355122,4.999886,4.999886,4.999886,4.999886,4.999886,4.999886,4.999886,4.999886,4.999886,4.999886,4.999886,4.999886,4.999886,4.999886,4.999886,4.999886,4.999886,4.999886,4.999886,4.999886,4.999886,4.999886,4.999886,4.999886,4.999886,4.999886,4.999886,4.999886,4.999886,4.999886,4.999886,4.999886,4.999886,4.999886,4.999886,4.999886,4.999886,4.999886,4.999886,4.999886,4.999886,4.999886,4.999886,4.999886,4.999886,4.999886,4.999886,4.999886,4.999886,4.999886,4.999886,4.999886,4.999886,4.999886,4.999886,4.999886,4.999886,4.999886,4.999886,4.999886,4.999886,4.999886,0.346787,0.346021,0.345533,0.345242,0.345202,0.345714,4.999886,4.999886,4.999886,4.999886,4.999886,4.999886,4.999886,4.999886,4.999886,4.999886,4.999886,4.999886,4.999886,4.999886,4.999886,4.999886,4.999886,4.999886,4.999886,4.999886,4.999886,4.999886,4.999886,4.999886,4.999886,4.999886,4.999886,4.999886,4.999886,4.999886
4.999886,4.999886,4.999886,4.999886,4.999886,4.999886,4.999886,4.999886,4.999886,4.999886,4.999886,4.999886,4.999886,4.999886,4.999886,4.999886,4.999886,4.999886,4.999886,4.999886,4.999886,4.999886,4.999886,4.999886,4.999886,4.999886,4.999886,4.999886,4.999886,4.999886,4.999886,0.486389,0.482224,0.479086,0.476790,0.474488,0.472645,0.470847,0.469197,0.467592,0.465999,0.464537,0.463095,0.461655,0.460200,0.458761,0.457298,0.455809,0.380440,0.380604,0.380769,0.380933,0.381098,0.381263,0.381429,0.381592,0.381753,0.381914,0.382076,0.382236,0.382398,0.382559,0.382721,0.382883,0.383046,0.383299,0.383803,0.384318,0.384834,0.385351,0.385869,0.386389,0.386921,0.387466,0.387939,0.388281,0.388623,0.388851,0.388819,0.389358,0.389545,0.389733,0.389920,0.390065,0.390208,0.390338,0.390399,0.390458,0.390519,0.390634,0.390793,0.390953,0.391112,0.391271,0.391436,0.391605,0.391773,0.391941,0.392111,0.392280,0.392449,0.392618,0.392813,0.393021,0.393230,0.393438,0.400104,0.400053,0.400005,0.399956,0.399907,0.399826,0.399722,0.399617,0.399515,0.399412,0.399308,0.399205,0.399068,0.398920,0.398789,0.398665,0.398214,0.397661,0.397053,0.396448,0.395841,0.395292,0.394660,0.394056,0.393509,0.392965,0.392298,0.391726,0.391158,0.390591,0.389920,0.389186,0.388606,0.388032,0.387417,0.386716,0.386018,0.385417,0.384852,0.384199,0.383547,0.382900,0.382317,0.381704,0.381130,0.380586,0.380037,0.379462,0.378958,0.378454,0.377931,0.377317,0.376768,0.376284,0.375787,0.375165,0.374546,0.373929,0.373339,0.372709,0.372053,0.371400,0.370750,0.370107,0.369516,0.368944,0.368374,0.367804,0.367204,0.366722,0.366242,0.365763,0.365247,0.364713,0.364287,0.363940,0.363586,0.363163,0.362741,0.362320,0.361915,0.361657,0.361324,0.360990,0.360659,0.360366,0.360058,0.359837,0.359617,0.359398,0.359178,0.358842,0.358632,0.358437,0.358241,0.357949,0.357627,0.357456,0.357287,0.357079,0.356771,0.356465,0.356267,0.356138,0.355945,0.355664,0.355383,0.355102,0.354990,0.354816,0.354559,0.354303,0.354047,0.353791,0.353638,0.353492,0.353345,0.353199,0.353052,0.352719,0.352636,0.352577,0.352519,0.352461,0.352287,0.351988,0.352054,0.352193,0.352331,0.352470,0.352608,4.999886,4.999886,4.999886,4.999886,4.999886,4.999886,4.999886,4.999886,4.999886,4.999886,4.999886,4.999886,4.999886,4.999886,4.999886,4.999886,4.999886,4.999886,4.999886,4.999886,4.999886,4.999886,4.999886,4.999886,4.999886,4.999886,4.999886,4.999886,4.999886,4.999886,4.999886,4.999886,4.999886,4.999886,4.999886,4.999886,4.999886,4.999886,4.999886,4.999886,4.999886,4.999886,4.999886,4.999886,4.999886,4.999886,4.999886,4.999886,4.999886,4.999886,4.999886,4.999886,4.999886,4.999886,4.999886,4.999886,4.999886,4.999886,0.346722,0.346059,0.345631,0.345416,0.345487,4.999886,4.999886,4.999886,4.999886,4.999886,4.999886,4.999886,4.999886,4.999886,4.999886,4.999886,4.999886,4.999886,4.999886,4.999886,4.999886,4.999886,4.999886,4.999886,4.999886,4.999886,4.999886,4.999886,4.999886,4.999886,4.999886,4.999886,4.999886,4.999886,4.999886,4.999886
4.999886,4.999886,4.999886,4.999886,4.999886,4.999886,4.999886,4.999886,4.999886,4.999886,4.999886,4.999886,4.999886,4.999886,4.999886,4.999886,4.999886,4.999886,4.999886,4.999886,4.999886,4.999886,4.999886,4.999886,4.999886,4.999886,4.999886,4.999886,4.999886,4.999886,0.487903,0.484125,0.480692,0.478068,0.475881,0.473746,0.471913,0.470184,0.468531,0.466968,0.465521,0.464066,0.462627,0.461184,0.459728,0.458292,0.456822,0.455350,0.380149,0.380313,0.380477,0.380642,0.380806,0.380969,0.381130,0.381291,0.381452,0.381611,0.381772,0.381934,0.382095,0.382258,0.382423,0.382586,0.382758,0.383011,0.383466,0.383978,0.384494,0.385012,0.385529,0.386048,0.386569,0.387111,0.387523,0.387866,0.388208,0.388511,0.388573,0.388982,0.389169,0.389357,0.389523,0.389668,0.389811,0.389956,0.390063,0.390155,0.390315,0.390473,0.390631,0.390792,0.390950,0.391111,0.391270,0.391438,0.391607,0.391774,0.391944,0.392113,0.392281,0.392450,0.392619,0.392788,0.392959,0.393129,0.393317,0.400011,0.399962,0.399901,0.399800,0.399698,0.399596,0.399493,0.399389,0.399286,0.399182,0.399047,0.398900,0.398785,0.398671,0.398536,0.398494,0.397908,0.397299,0.396694,0.396109,0.395547,0.394996,0.394448,0.393899,0.393353,0.392615,0.391991,0.391423,0.390854,0.390153,0.389417,0.388746,0.388173,0.387516,0.386814,0.386116,0.385452,0.384845,0.384192,0.383542,0.382944,0.382321,0.381775,0.381231,0.380688,0.380108,0.379483,0.378978,0.378475,0.377906,0.377293,0.376713,0.376226,0.375653,0.375033,0.374415,0.373799,0.373184,0.372526,0.371915,0.371334,0.370753,0.370141,0.369567,0.368995,0.368424,0.367831,0.367214,0.366709,0.366230,0.365740,0.365206,0.364674,0.364186,0.363837,0.363439,0.363016,0.362594,0.362174,0.361754,0.361436,0.361156,0.360876,0.360597,0.360317,0.359938,0.359696,0.359477,0.359256,0.358969,0.358629,0.358396,0.358201,0.357960,0.357637,0.357311,0.357105,0.356937,0.356642,0.356335,0.356029,0.355763,0.355622,0.355340,0.355060,0.354780,0.354499,0.354249,0.354060,0.353871,0.353682,0.353493,0.353224,0.352963,0.352816,0.352671,0.352525,0.352266,0.351914,0.351672,0.351614,0.351556,0.351304,0.351008,0.350712,0.350495,0.350632,0.350547,0.350439,0.350332,0.350226,0.350331,0.350997,0.351666,0.352337,4.999886,4.999886,4.999886,4.999886,4.999886,4.999886,4.999886,4.999886,4.999886,4.999886,4.999886,4.999886,4.999886,4.999886,4.999886,4.999886,4.999886,4.999886,4.999886,4.999886,4.999886,4.999886,4.999886,4.999886,4.999886,4.999886,4.999886,4.999886,4.999886,4.999886,4.999886,4.999886,4.999886,4.999886,4.999886,4.999886,4.999886,4.999886,4.999886,4.999886,4.999886,4.999886,4.999886,4.999886,4.999886,4.999886,4.999886,4.999886,4.999886,4.999886,4.999886,4.999886,4.999886,0.346703,0.346123,0.345755,0.345618,0.345809,4.999886,4.999886,4.999886,4.999886,4.999886,4.999886,4.999886,4.999886,4.999886,4.999886,4.999886,4.999886,4.999886,4.999886,4.999886,4.999886,4.999886,4.999886,4.999886,4.999886,4.999886,4.999886,4.999886,4.999886,4.999886,4.999886,4.999886,4.999886,4.999886,4.999886,4.999886
4.999886,4.999886,4.999886,4.999886,4.999886,4.999886,4.999886,4.999886,4.999886,4.999886,4.999886,4.999886,4.999886,4.999886,4.999886,4.999886,4.999886,4.999886,4.999886,4.999886,4.999886,4.999886,4.999886,4.999886,4.999886,4.999886,4.999886,4.999886,4.999886,0.490339,0.485742,0.482304,0.479386,0.477070,0.474974,0.473007,0.471192,0.469523,0.467958,0.466500,0.465056,0.463600,0.462160,0.460712,0.459261,0.457814,0.456345,0.454967,0.453658,0.380022,0.380186,0.380349,0.380509,0.380669,0.380830,0.380991,0.381153,0.381316,0.381478,0.381640,0.381804,0.381966,0.382134,0.382301,0.382555,0.382809,0.383130,0.383641,0.384156,0.384671,0.385189,0.385707,0.386227,0.386756,0.387111,0.387407,0.387704,0.388012,0.388370,0.388380,0.388795,0.388981,0.389127,0.389270,0.389414,0.389582,0.389820,0.389994,0.390153,0.390312,0.390471,0.390630,0.390789,0.390949,0.391108,0.391273,0.391439,0.391607,0.391777,0.391946,0.392114,0.392283,0.392453,0.392622,0.392791,0.392961,0.393055,0.399968,0.399875,0.399773,0.399672,0.399570,0.399470,0.399366,0.399263,0.399159,0.399027,0.398895,0.398782,0.398666,0.398540,0.398406,0.398768,0.398186,0.397643,0.397101,0.396560,0.395976,0.395389,0.394838,0.394289,0.393741,0.392999,0.392258,0.391686,0.391118,0.390386,0.389650,0.388916,0.388313,0.387615,0.386914,0.382441,0.385556,0.384930,0.384333,0.383740,0.383148,0.382488,0.381877,0.381332,0.380789,0.380176,0.379538,0.379000,0.378494,0.377880,0.377268,0.376659,0.376141,0.375520,0.374901,0.374308,0.373772,0.373179,0.372594,0.372010,0.371427,0.370833,0.370202,0.369619,0.369047,0.368476,0.367859,0.367242,0.366697,0.366218,0.365700,0.365167,0.364635,0.364104,0.363716,0.363293,0.362888,0.362522,0.362156,0.361765,0.361387,0.361107,0.360828,0.360548,0.360208,0.359828,0.359554,0.359335,0.359095,0.358755,0.358416,0.358158,0.357964,0.357646,0.357323,0.356999,0.356757,0.356513,0.356207,0.355900,0.355594,0.355288,0.355038,0.354810,0.354580,0.354352,0.354124,0.353767,0.353577,0.353388,0.353201,0.353006,0.352655,0.352304,0.352144,0.351999,0.351813,0.351462,0.351112,0.350762,0.350623,0.350328,0.350111,0.349927,0.349742,0.349461,0.349252,0.349172,0.349090,0.349010,0.348888,0.348591,0.348498,0.348651,0.348803,0.348955,0.349108,0.349322,4.999886,4.999886,4.999886,4.999886,4.999886,4.999886,4.999886,4.999886,4.999886,4.999886,4.999886,4.999886,4.999886,4.999886,4.999886,4.999886,4.999886,4.999886,4.999886,4.999886,4.999886,4.999886,4.999886,4.999886,4.999886,4.999886,4.999886,4.999886,4.999886,4.999886,4.999886,4.999886,4.999886,4.999886,4.999886,4.999886,4.999886,4.999886,4.999886,4.999886,4.999886,4.999886,4.999886,4.999886,4.999886,4.999886,4.999886,4.999886,4.999886,0.347655,0.346708,0.346187,0.345876,0.345818,0.346187,4.999886,4.999886,4.999886,4.999886,4.999886,4.999886,4.999886,4.999886,4.999886,4.999886,4.999886,4.999886,4.999886,4.999886,4.999886,4.999886,4.999886,4.999886,4.999886,4.999886,4.999886,4.999886,4.999886,4.999886,4.999886,4.999886,4.999886,4.999886,0.312279,0.311514,0.309185
4.999886,4.999886,4.999886,4.999886,4.999886,4.999886,4.999886,4.999886,4.999886,4.999886,4.999886,4.999886,4.999886,4.999886,4.999886,4.999886,4.999886,4.999886,4.999886,4.999886,4.999886,4.999886,4.999886,4.999886,4.999886,4.999886,4.999886,4.999886,0.495172,0.487216,0.484127,0.481031,0.478376,0.476160,0.474078,0.472274,0.470612,0.469044,0.467507,0.466032,0.464588,0.463136,0.461694,0.460243,0.458821,0.457490,0.456141,0.454797,0.453509,0.379807,0.379893,0.380054,0.380216,0.380378,0.380538,0.380701,0.380863,0.381025,0.381187,0.381349,0.381517,0.381682,0.381852,0.382102,0.382354,0.382607,0.382860,0.383305,0.383818,0.384333,0.384849,0.385367,0.385849,0.386274,0.386605,0.386901,0.387197,0.387519,0.387877,0.388235,0.388278,0.388587,0.388732,0.388906,0.389143,0.389380,0.389617,0.389833,0.389992,0.390150,0.390309,0.390469,0.390627,0.390787,0.390946,0.391106,0.391274,0.391442,0.391610,0.391779,0.391947,0.392117,0.392284,0.392455,0.392568,0.392660,0.392753,0.399849,0.399747,0.399646,0.399543,0.399444,0.399342,0.399240,0.399137,0.399006,0.398891,0.398777,0.398662,0.398545,0.398412,0.398277,0.399261,0.398642,0.398099,0.397555,0.397013,0.396421,0.395807,0.395230,0.394679,0.394130,0.393385,0.392641,0.391953,0.391359,0.390618,0.389882,0.389147,0.388441,0.387797,0.387154,0.382645,0.382564,0.385135,0.384539,0.383945,0.383352,0.382664,0.381980,0.381434,0.380886,0.380245,0.379607,0.379022,0.378469,0.377856,0.377244,0.376634,0.376082,0.375539,0.374998,0.374459,0.373900,0.373276,0.372689,0.372105,0.371523,0.370903,0.370272,0.369670,0.369097,0.368508,0.367888,0.367269,0.366685,0.366196,0.365661,0.365126,0.364595,0.364110,0.363677,0.363311,0.362943,0.362577,0.362211,0.361768,0.361339,0.361059,0.360779,0.360478,0.360098,0.359719,0.359414,0.359195,0.358880,0.358543,0.358203,0.357921,0.357657,0.357333,0.357009,0.356688,0.356383,0.356104,0.355842,0.355581,0.355319,0.355010,0.354706,0.354477,0.354249,0.354021,0.353725,0.353360,0.353096,0.352909,0.352720,0.352438,0.352087,0.351738,0.351475,0.351330,0.351014,0.350663,0.350329,0.350042,0.349782,0.349599,0.349415,0.349232,0.349006,0.348633,0.348261,0.348167,0.348087,0.347895,0.347600,0.347304,0.347010,0.347016,0.346987,0.346851,0.346718,0.346584,0.346451,0.347598,4.999886,4.999886,4.999886,4.999886,4.999886,4.999886,4.999886,4.999886,4.999886,4.999886,4.999886,4.999886,4.999886,4.999886,4.999886,4.999886,4.999886,4.999886,4.999886,4.999886,4.999886,4.999886,4.999886,4.999886,4.999886,4.999886,4.999886,4.999886,4.999886,4.999886,4.999886,4.999886,4.999886,4.999886,4.999886,4.999886,4.999886,4.999886,4.999886,4.999886,4.999886,4.999886,4.999886,4.999886,4.999886,4.999886,4.999886,0.347531,0.346735,0.346264,0.346008,0.346011,4.999886,4.999886,4.999886,4.999886,4.999886,4.999886,4.999886,4.999886,4.999886,4.999886,4.999886,4.999886,4.999886,4.999886,4.999886,4.999886,4.999886,4.999886,4.999886,4.999886,4.999886,4.999886,4.999886,4.999886,4.999886,4.999886,0.312094,0.310985,0.309884,0.309131,0.308652,0.308174
4.999886,4.999886,4.999886,4.999886,4.999886,4.999886,4.999886,4.999886,4.999886,4.999886,4.999886,4.999886,4.999886,4.999886,4.999886,4.999886,4.999886,4.999886,4.999886,4.999886,4.999886,4.999886,4.999886,4.999886,4.999886,4.999886,4.999886,4.999886,0.489474,0.485425,0.482472,0.479761,0.477370,0.475333,0.473485,0.471771,0.470142,0.468577,0.467055,0.465568,0.464120,0.462672,0.461282,0.459950,0.458628,0.457304,0.455966,0.454628,0.453346,0.452054,0.379604,0.379766,0.379926,0.380088,0.380250,0.380411,0.380572,0.380734,0.380900,0.381066,0.381235,0.381403,0.381647,0.381900,0.382152,0.382406,0.382658,0.382969,0.383481,0.383985,0.384406,0.384828,0.385251,0.385675,0.386099,0.386397,0.386692,0.387028,0.387386,0.387743,0.388004,0.388232,0.388468,0.388704,0.388942,0.389179,0.389416,0.389653,0.389831,0.389989,0.390149,0.390307,0.390466,0.390626,0.390784,0.390943,0.391108,0.391276,0.391445,0.391612,0.391782,0.391949,0.392080,0.392173,0.392265,0.392358,0.392458,0.392549,0.399619,0.399518,0.399416,0.399316,0.399214,0.399114,0.399002,0.398886,0.398772,0.398657,0.398544,0.398416,0.398282,0.398147,0.399806,0.399184,0.398554,0.398011,0.397468,0.396863,0.396250,0.395637,0.395070,0.394517,0.393771,0.393025,0.392284,0.391593,0.390883,0.390232,0.389581,0.388889,0.388120,0.387477,0.386836,0.382665,0.385424,0.384745,0.384150,0.383546,0.382841,0.382138,0.381535,0.380955,0.380314,0.379675,0.379043,0.378457,0.377921,0.377385,0.376851,0.376233,0.375690,0.375148,0.374609,0.374009,0.373381,0.372785,0.372201,0.371606,0.370971,0.370340,0.369722,0.369149,0.368536,0.367915,0.367298,0.366682,0.366155,0.365668,0.365198,0.364730,0.364250,0.363731,0.363365,0.362997,0.362631,0.362226,0.361773,0.361319,0.361010,0.360731,0.360368,0.359988,0.359609,0.359274,0.359008,0.358668,0.358328,0.357991,0.357668,0.357370,0.357090,0.356811,0.356531,0.356159,0.355897,0.355635,0.355374,0.355112,0.354728,0.354376,0.354148,0.353919,0.353682,0.353318,0.352953,0.352615,0.352429,0.352221,0.351871,0.351522,0.351174,0.350826,0.350564,0.350263,0.349977,0.349690,0.349404,0.349119,0.348904,0.348722,0.348539,0.348180,0.347809,0.347440,0.347168,0.346908,0.346680,0.346483,0.346285,0.346089,0.345714,0.345613,0.345523,0.345434,0.345344,0.345099,0.344772,0.344831,0.345048,0.345267,0.345484,0.345703,4.999886,4.999886,4.999886,4.999886,4.999886,4.999886,4.999886,4.999886,4.999886,4.999886,4.999886,4.999886,4.999886,4.999886,4.999886,4.999886,4.999886,4.999886,4.999886,4.999886,4.999886,4.999886,4.999886,4.999886,4.999886,4.999886,4.999886,4.999886,4.999886,4.999886,4.999886,4.999886,4.999886,4.999886,4.999886,4.999886,4.999886,4.999886,4.999886,4.999886,4.999886,4.999886,0.347479,0.346766,0.346330,0.346118,0.346190,4.999886,4.999886,4.999886,4.999886,4.999886,4.999886,4.999886,4.999886,4.999886,4.999886,4.999886,4.999886,4.999886,4.999886,4.999886,4.999886,4.999886,4.999886,4.999886,4.999886,4.999886,4.999886,0.315530,0.312481,0.311996,0.311513,0.310470,0.309403,0.308985,0.308317,0.307645,0.307171
4.999886,4.999886,4.999886,4.999886,4.999886,4.999886,4.999886,4.999886,4.999886,4.999886,4.999886,4.999886,4.999886,4.999886,4.999886,4.999886,4.999886,4.999886,4.999886,4.999886,4.999886,4.999886,4.999886,4.999886,4.999886,4.999886,4.999886,0.491164,0.486829,0.483806,0.481027,0.478701,0.476656,0.474757,0.472971,0.471266,0.469670,0.468110,0.466602,0.465120,0.463725,0.462398,0.461079,0.459759,0.458436,0.457113,0.455792,0.454458,0.453178,0.451904,0.379475,0.379476,0.379638,0.379799,0.379960,0.380121,0.380287,0.380451,0.380619,0.380787,0.380954,0.381195,0.381447,0.381699,0.381952,0.382204,0.382457,0.382665,0.382974,0.383393,0.383813,0.384233,0.384656,0.385077,0.385500,0.385892,0.386186,0.386539,0.386894,0.387281,0.387701,0.387880,0.388268,0.388504,0.388740,0.388977,0.389213,0.389452,0.389670,0.389830,0.389988,0.390146,0.390306,0.390464,0.390624,0.390783,0.390942,0.391109,0.391277,0.391447,0.391596,0.391688,0.391780,0.391884,0.391991,0.392099,0.392192,0.392255,0.399483,0.399381,0.399281,0.399181,0.399080,0.398982,0.398882,0.398766,0.398653,0.398539,0.398421,0.398288,0.398153,0.398053,0.400351,0.399771,0.399099,0.398466,0.397923,0.397308,0.396694,0.396079,0.395468,0.394905,0.394157,0.393412,0.392740,0.392058,0.391377,0.390722,0.390071,0.389387,0.388514,0.387800,0.387158,0.382809,0.385730,0.384972,0.384356,0.383726,0.383019,0.382315,0.381638,0.381025,0.380398,0.379839,0.379278,0.378684,0.378146,0.377609,0.377047,0.376402,0.375840,0.375298,0.374751,0.374119,0.373490,0.372881,0.372296,0.371675,0.371039,0.370408,0.369778,0.369186,0.368564,0.367943,0.367386,0.366838,0.366293,0.365821,0.365351,0.364882,0.364376,0.363843,0.363419,0.363051,0.362684,0.362229,0.361775,0.361323,0.360962,0.360638,0.360257,0.359878,0.359499,0.359132,0.358806,0.358492,0.358178,0.357864,0.357552,0.357272,0.356992,0.356713,0.356387,0.355979,0.355692,0.355429,0.355168,0.354830,0.354447,0.354066,0.353817,0.353590,0.353276,0.352911,0.352547,0.352184,0.351950,0.351655,0.351308,0.350958,0.350669,0.350399,0.350012,0.349672,0.349340,0.349054,0.348770,0.348486,0.348213,0.348031,0.347729,0.347359,0.347015,0.346749,0.346409,0.346157,0.345960,0.345762,0.345565,0.345243,0.344871,0.344573,0.344483,0.344395,0.344088,0.343764,0.343438,0.343115,0.343105,0.342918,0.342755,0.342660,0.342566,0.342470,0.342420,0.344969,4.999886,4.999886,4.999886,4.999886,4.999886,4.999886,4.999886,4.999886,4.999886,4.999886,4.999886,4.999886,4.999886,4.999886,4.999886,4.999886,4.999886,4.999886,4.999886,4.999886,4.999886,4.999886,4.999886,4.999886,4.999886,4.999886,4.999886,4.999886,4.999886,4.999886,4.999886,4.999886,4.999886,4.999886,4.999886,4.999886,4.999886,4.999886,0.347475,0.346794,0.346391,0.346220,0.346336,4.999886,4.999886,4.999886,4.999886,4.999886,4.999886,4.999886,4.999886,4.999886,4.999886,4.999886,4.999886,4.999886,4.999886,4.999886,4.999886,4.999886,4.999886,0.315293,0.314164,0.313157,0.312332,0.311848,0.311365,0.310884,0.309957,0.309227,0.308810,0.308300,0.307625,0.306953,0.306362
4.999886,4.999886,4.999886,4.999886,4.999886,4.999886,4.999886,4.999886,4.999886,4.999886,4.999886,4.999886,4.999886,4.999886,4.999886,4.999886,4.999886,4.999886,4.999886,4.999886,4.999886,4.999886,4.999886,4.999886,4.999886,4.999886,0.493403,0.488489,0.485164,0.482592,0.480243,0.478047,0.476046,0.474183,0.472455,0.470767,0.469201,0.467645,0.466229,0.464866,0.463525,0.462199,0.460880,0.459559,0.458242,0.456922,0.455602,0.454287,0.453025,0.451859,0.450723,0.379189,0.379350,0.379510,0.379674,0.379840,0.380007,0.380174,0.380339,0.380506,0.380744,0.380994,0.381246,0.381497,0.381750,0.381974,0.382162,0.382289,0.382416,0.382802,0.383221,0.383640,0.384060,0.384482,0.384903,0.385327,0.385696,0.386089,0.386505,0.386921,0.387339,0.387702,0.387966,0.388303,0.388538,0.388775,0.389011,0.389250,0.389487,0.389669,0.389827,0.389986,0.390145,0.390303,0.390463,0.390621,0.390781,0.390943,0.391112,0.391206,0.391312,0.391420,0.391527,0.391635,0.391744,0.391836,0.391899,0.391962,0.399346,0.399246,0.399146,0.399046,0.398947,0.398851,0.398757,0.398648,0.398534,0.398421,0.398292,0.398162,0.398062,0.397946,0.400901,0.400360,0.399686,0.399014,0.398372,0.397754,0.397137,0.396523,0.395909,0.395295,0.394630,0.393973,0.393319,0.392657,0.391887,0.391214,0.390560,0.389888,0.389013,0.388140,0.387480,0.382988,0.386034,0.385276,0.384561,0.383904,0.383197,0.382508,0.381896,0.381267,0.380706,0.380147,0.379570,0.378910,0.378371,0.377834,0.377244,0.376598,0.375991,0.375449,0.374860,0.374228,0.373599,0.372977,0.372381,0.371745,0.371109,0.370477,0.369859,0.369290,0.368734,0.368182,0.367630,0.367062,0.366452,0.365973,0.365503,0.365033,0.364503,0.363969,0.363474,0.363107,0.362687,0.362232,0.361779,0.361326,0.360908,0.360535,0.360182,0.359830,0.359477,0.359126,0.358717,0.358399,0.358085,0.357771,0.357457,0.357175,0.356895,0.356616,0.356213,0.355805,0.355484,0.355224,0.354932,0.354549,0.354167,0.353785,0.353489,0.353233,0.352869,0.352505,0.352143,0.351780,0.351441,0.351163,0.350893,0.350623,0.350353,0.350031,0.349621,0.349255,0.348916,0.348577,0.348240,0.347903,0.347571,0.347282,0.347015,0.346749,0.346483,0.346180,0.345804,0.345437,0.345241,0.345044,0.344773,0.344402,0.344031,0.343661,0.343409,0.343132,0.342923,0.342714,0.342506,0.342223,0.341850,0.341755,0.341660,0.341567,0.341437,0.341074,0.340712,0.340638,0.340811,0.340983,0.341155,0.341088,0.340780,0.341328,4.999886,4.999886,4.999886,4.999886,4.999886,4.999886,4.999886,4.999886,4.999886,4.999886,4.999886,4.999886,4.999886,4.999886,4.999886,4.999886,4.999886,4.999886,4.999886,4.999886,4.999886,4.999886,4.999886,4.999886,4.999886,4.999886,4.999886,4.999886,4.999886,4.999886,4.999886,4.999886,0.347481,0.346826,0.346441,0.346293,0.346441,4.999886,4.999886,4.999886,4.999886,4.999886,4.999886,4.999886,4.999886,4.999886,4.999886,4.999886,4.999886,4.999886,4.999886,0.318592,0.315628,0.315160,0.314673,0.313549,0.312532,0.312074,0.311366,0.310736,0.310257,0.309469,0.309051,0.308634,0.308219,0.307608,0.306935,0.306383,0.305991
4.999886,4.999886,4.999886,4.999886,4.999886,4.999886,4.999886,4.999886,4.999886,4.999886,4.999886,4.999886,4.999886,4.999886,4.999886,4.999886,4.999886,4.999886,4.999886,4.999886,4.999886,4.999886,4.999886,4.999886,4.999886,0.496431,0.490115,0.486727,0.484143,0.481628,0.479463,0.477391,0.475456,0.473616,0.471940,0.470296,0.468824,0.467392,0.466026,0.464667,0.463324,0.461997,0.460680,0.459362,0.458047,0.456729,0.455475,0.454281,0.453111,0.451943,0.450801,0.379143,0.379065,0.379229,0.379395,0.379561,0.379728,0.379894,0.380061,0.380294,0.380545,0.380795,0.381045,0.381270,0.381468,0.381661,0.381788,0.381914,0.382041,0.382214,0.382631,0.383050,0.383469,0.383887,0.384322,0.384842,0.385364,0.385729,0.386143,0.386559,0.386976,0.387393,0.387533,0.388019,0.388304,0.388573,0.388809,0.389047,0.389284,0.389508,0.389668,0.389825,0.389985,0.390143,0.390301,0.390461,0.390620,0.390742,0.390850,0.390956,0.391064,0.391171,0.391280,0.391387,0.391482,0.391545,0.391606,0.391703,0.399211,0.399109,0.399009,0.398910,0.398816,0.398721,0.398627,0.398530,0.398415,0.398297,0.398171,0.398071,0.397972,0.397824,0.401450,0.400941,0.400275,0.399654,0.399132,0.398457,0.397846,0.397239,0.396632,0.396034,0.395306,0.394556,0.393899,0.393245,0.392485,0.391714,0.391053,0.390389,0.389511,0.388638,0.387804,0.383190,0.386341,0.385581,0.384854,0.384199,0.383582,0.382965,0.382351,0.381583,0.381015,0.380455,0.379861,0.379198,0.378597,0.378059,0.377439,0.376793,0.376148,0.375599,0.374971,0.374338,0.373708,0.373080,0.372463,0.371883,0.371305,0.370729,0.370154,0.369536,0.368980,0.368427,0.367874,0.367289,0.366677,0.366125,0.365656,0.365165,0.364630,0.364094,0.363561,0.363147,0.362691,0.362241,0.361822,0.361405,0.360988,0.360552,0.360198,0.359846,0.359494,0.359143,0.358744,0.358330,0.357992,0.357678,0.357365,0.357076,0.356798,0.356445,0.356038,0.355632,0.355278,0.355017,0.354650,0.354269,0.353886,0.353506,0.353159,0.352827,0.352463,0.352150,0.351842,0.351533,0.351138,0.350847,0.350577,0.350309,0.350040,0.349659,0.349252,0.348844,0.348502,0.348164,0.347826,0.347491,0.347136,0.346750,0.346483,0.346218,0.345953,0.345578,0.345203,0.344830,0.344525,0.344303,0.343934,0.343563,0.343293,0.343028,0.342641,0.342394,0.342187,0.341979,0.341757,0.341361,0.340966,0.340668,0.340574,0.340342,0.339981,0.339622,0.339337,0.339087,0.338872,0.338754,0.338635,0.338517,0.338399,0.338104,0.337698,0.337817,0.337955,0.338093,0.338231,0.338368,0.338278,4.999886,4.999886,4.999886,4.999886,4.999886,4.999886,4.999886,4.999886,4.999886,4.999886,4.999886,4.999886,0.382007,4.999886,4.999886,4.999886,4.999886,4.999886,4.999886,4.999886,4.999886,4.999886,4.999886,4.999886,4.999886,0.347496,0.346852,0.346475,0.346338,0.346502,4.999886,4.999886,4.999886,4.999886,4.999886,4.999886,4.999886,4.999886,4.999886,0.318749,0.318062,0.316980,0.315905,0.315382,0.314916,0.314450,0.313985,0.312936,0.312314,0.311889,0.311317,0.310612,0.309911,0.309316,0.308875,0.308459,0.308044,0.307591,0.306919,0.306406,0.306046,0.305618
4.999886,4.999886,4.999886,4.999886,4.999886,4.999886,4.999886,4.999886,4.999886,4.999886,4.999886,4.999886,4.999886,4.999886,4.999886,4.999886,4.999886,4.999886,4.999886,4.999886,4.999886,4.999886,4.999886,4.999886,0.500003,0.491998,0.488321,0.485564,0.483181,0.480815,0.478688,0.476738,0.474871,0.473099,0.471546,0.470049,0.468614,0.467188,0.465823,0.464463,0.463121,0.461798,0.460481,0.459169,0.457959,0.456765,0.455556,0.454358,0.453195,0.452031,0.450878,0.449768,0.378787,0.378952,0.379118,0.379284,0.379450,0.379616,0.379843,0.380095,0.380345,0.380568,0.380767,0.380965,0.381162,0.381288,0.381413,0.381539,0.381665,0.381793,0.382044,0.382460,0.382955,0.383472,0.383990,0.384511,0.385032,0.385453,0.385787,0.386199,0.386615,0.387030,0.387419,0.387509,0.388017,0.388301,0.388586,0.388845,0.389082,0.389319,0.389507,0.389665,0.389824,0.389982,0.390140,0.390275,0.390384,0.390493,0.390602,0.390710,0.390816,0.390923,0.391031,0.391127,0.391190,0.391270,0.391366,0.391454,0.391531,0.398974,0.398876,0.398780,0.398686,0.398591,0.398495,0.398401,0.398297,0.398182,0.398082,0.397981,0.397883,0.397702,0.397501,0.401559,0.401000,0.400475,0.399953,0.399426,0.398603,0.397987,0.397382,0.396785,0.396191,0.395352,0.394480,0.393824,0.393086,0.392312,0.391545,0.390889,0.390013,0.389137,0.388275,0.383410,0.386807,0.386112,0.385419,0.384681,0.384042,0.383424,0.382808,0.382039,0.381324,0.380763,0.380152,0.379488,0.378826,0.378285,0.377635,0.376988,0.376342,0.375715,0.375122,0.374546,0.373973,0.373402,0.372762,0.372181,0.371602,0.371025,0.370435,0.369816,0.369226,0.368672,0.368118,0.367514,0.366902,0.366292,0.365807,0.365293,0.364755,0.364220,0.363709,0.363220,0.362794,0.362373,0.361955,0.361537,0.361120,0.360681,0.360235,0.359863,0.359511,0.359160,0.358771,0.358355,0.357942,0.357585,0.357272,0.356980,0.356680,0.356272,0.355864,0.355458,0.355073,0.354752,0.354370,0.353988,0.353623,0.353285,0.352913,0.352586,0.352275,0.351966,0.351655,0.351321,0.350893,0.350533,0.350263,0.349994,0.349698,0.349290,0.348881,0.348475,0.348089,0.347752,0.347415,0.347055,0.346671,0.346286,0.345953,0.345688,0.345350,0.344976,0.344603,0.344231,0.343872,0.343580,0.343316,0.343050,0.342786,0.342522,0.342086,0.341660,0.341453,0.341247,0.340896,0.340502,0.340109,0.339732,0.339459,0.339241,0.339024,0.338807,0.338589,0.338195,0.337789,0.337640,0.337522,0.337399,0.336995,0.336591,0.336189,0.335796,0.335647,0.335502,0.335358,0.335213,0.335068,0.334777,0.334340,0.334440,0.334540,0.334639,0.334739,0.334839,0.334393,4.999886,4.999886,4.999886,4.999886,0.381815,0.381892,4.999886,4.999886,4.999886,4.999886,4.999886,4.999886,4.999886,4.999886,4.999886,4.999886,4.999886,0.347520,0.346873,0.346496,0.346360,0.346519,4.999886,0.322126,0.321753,0.320797,0.320525,0.320254,0.318770,0.318388,0.318007,0.317374,0.316296,0.315597,0.315081,0.314365,0.313743,0.313280,0.312521,0.312096,0.311672,0.311249,0.310563,0.309862,0.309355,0.308903,0.308342,0.307870,0.307456,0.306901,0.306428,0.306068,0.305710,0.305246
4.999886,4.999886,4.999886,4.999886,4.999886,4.999886,4.999886,4.999886,4.999886,4.999886,4.999886,4.999886,4.999886,4.999886,4.999886,4.999886,4.999886,4.999886,4.999886,4.999886,4.999886,4.999886,4.999886,4.999886,0.493787,0.490277,0.486976,0.484429,0.482221,0.480023,0.477983,0.476154,0.474467,0.472860,0.471315,0.469828,0.468407,0.466984,0.465618,0.464261,0.462921,0.461661,0.460443,0.459227,0.458017,0.456822,0.455639,0.454437,0.453270,0.452115,0.450958,0.449845,0.448740,0.378674,0.378840,0.379006,0.379171,0.379396,0.379645,0.379869,0.380068,0.380266,0.380463,0.380662,0.380788,0.380914,0.381040,0.381166,0.381292,0.381424,0.381665,0.382110,0.382626,0.383142,0.383660,0.384178,0.384700,0.385206,0.385538,0.385872,0.386253,0.386669,0.387084,0.387223,0.387730,0.388014,0.388298,0.388582,0.388867,0.389118,0.389346,0.389504,0.389663,0.389810,0.389918,0.390029,0.390136,0.390245,0.390354,0.390461,0.390570,0.390677,0.390773,0.390838,0.390934,0.391031,0.391125,0.391204,0.391280,0.398839,0.398745,0.398650,0.398556,0.398460,0.398365,0.398270,0.398185,0.398091,0.397991,0.397892,0.397780,0.397579,0.397406,0.402373,0.401975,0.401436,0.400775,0.400250,0.399602,0.398777,0.398138,0.397540,0.396944,0.396326,0.395400,0.394474,0.393688,0.392912,0.392141,0.391382,0.390575,0.389825,0.389076,0.383650,0.383844,0.386680,0.385986,0.385252,0.384502,0.383883,0.383267,0.382497,0.381703,0.381072,0.380444,0.379780,0.379117,0.378483,0.377865,0.377301,0.376738,0.376106,0.375495,0.374917,0.374344,0.373768,0.373102,0.372480,0.371900,0.371321,0.370718,0.370098,0.369478,0.368917,0.368356,0.367741,0.367128,0.366516,0.365958,0.365426,0.364934,0.364446,0.363957,0.363470,0.362982,0.362505,0.362086,0.361668,0.361250,0.360819,0.360374,0.359930,0.359529,0.359178,0.358798,0.358383,0.357969,0.357556,0.357181,0.356882,0.356506,0.356098,0.355691,0.355286,0.354913,0.354557,0.354218,0.353879,0.353542,0.353205,0.352774,0.352400,0.352087,0.351779,0.351470,0.351075,0.350649,0.350222,0.349949,0.349680,0.349327,0.348919,0.348513,0.348107,0.347703,0.347339,0.346975,0.346591,0.346206,0.345824,0.345441,0.345124,0.344749,0.344448,0.344146,0.343846,0.343506,0.343086,0.342807,0.342543,0.342279,0.341992,0.341532,0.341074,0.340723,0.340431,0.340039,0.339755,0.339476,0.339133,0.338738,0.338493,0.338275,0.338059,0.337710,0.337307,0.336903,0.336534,0.336295,0.335974,0.335743,0.335512,0.335281,0.334891,0.334511,0.334367,0.334223,0.334080,0.333658,0.333193,0.332731,0.332286,0.332098,0.331918,0.331739,0.331559,0.331380,0.330929,0.330359,0.330166,0.330194,0.330223,0.329403,0.328598,0.328383,0.328100,0.327386,0.327256,0.327185,0.327116,0.326553,0.325184,0.324921,0.324452,0.323625,0.323199,0.323035,0.321979,0.321671,0.321363,0.320948,0.319983,0.319029,0.318580,0.318028,0.317647,0.317268,0.316690,0.315760,0.315350,0.314941,0.314294,0.313582,0.312872,0.312317,0.311878,0.311454,0.311033,0.310514,0.309813,0.309356,0.308977,0.308490,0.307931,0.307374,0.306870,0.306451,0.306090,0.305731,0.305373,0.304874
4.999886,4.999886,4.999886,4.999886,4.999886,4.999886,4.999886,4.999886,4.999886,4.999886,4.999886,4.999886,4.999886,4.999886,4.999886,4.999886,4.999886,4.999886,4.999886,4.999886,4.999886,4.999886,4.999886,0.496259,0.491800,0.488660,0.485839,0.483464,0.481336,0.479430,0.477605,0.475827,0.474194,0.472602,0.471084,0.469607,0.468187,0.466779,0.465428,0.464179,0.462939,0.461716,0.460498,0.459285,0.458077,0.456878,0.455701,0.454519,0.453346,0.452189,0.451064,0.450025,0.448994,0.447973,0.378564,0.378729,0.378949,0.379173,0.379370,0.379568,0.379765,0.379963,0.380161,0.380291,0.380416,0.380542,0.380668,0.380794,0.381030,0.381271,0.381513,0.381832,0.382300,0.382814,0.383330,0.383848,0.384368,0.384889,0.385291,0.385624,0.385957,0.386307,0.386723,0.387140,0.387164,0.387728,0.388011,0.388294,0.388579,0.388864,0.389150,0.389345,0.389453,0.389562,0.389672,0.389781,0.389888,0.389997,0.390107,0.390216,0.390322,0.390419,0.390503,0.390598,0.390696,0.390790,0.390878,0.390952,0.391029,0.398707,0.398612,0.398516,0.398419,0.398322,0.398227,0.398132,0.398071,0.398002,0.397901,0.397803,0.397659,0.397466,0.403791,0.403210,0.402838,0.402466,0.401984,0.401228,0.400550,0.399895,0.399334,0.398697,0.397937,0.397182,0.396418,0.395629,0.394846,0.393861,0.393083,0.392309,0.391435,0.390634,0.389883,0.383915,0.383926,0.387250,0.386553,0.385826,0.385061,0.384344,0.383726,0.382953,0.382159,0.381381,0.380737,0.380125,0.379543,0.378948,0.378362,0.377796,0.377232,0.376603,0.375870,0.375292,0.374716,0.374124,0.373456,0.372790,0.372197,0.371618,0.371001,0.370379,0.369760,0.369162,0.368582,0.367967,0.367353,0.366780,0.366218,0.365680,0.365186,0.364695,0.364208,0.363719,0.363231,0.362744,0.362256,0.361799,0.361381,0.360957,0.360511,0.360067,0.359622,0.359194,0.358825,0.358410,0.357997,0.357583,0.357171,0.356773,0.356406,0.356043,0.355679,0.355316,0.354880,0.354475,0.354136,0.353798,0.353461,0.353075,0.352636,0.352213,0.351903,0.351593,0.351257,0.350830,0.350404,0.349979,0.349635,0.349366,0.348959,0.348552,0.348146,0.347741,0.347372,0.346995,0.346616,0.346238,0.345862,0.345485,0.345110,0.344723,0.344421,0.344119,0.343818,0.343517,0.343120,0.342702,0.342301,0.342037,0.341774,0.341440,0.340980,0.340524,0.340089,0.339778,0.339499,0.339220,0.338911,0.338513,0.338119,0.337747,0.337532,0.337228,0.336826,0.336423,0.336140,0.335850,0.335456,0.335227,0.334998,0.334767,0.334430,0.333990,0.333552,0.333241,0.333008,0.332547,0.332291,0.332039,0.331788,0.331365,0.330966,0.330787,0.330609,0.330407,0.329839,0.329274,0.328823,0.328498,0.328160,0.327944,0.327729,0.327515,0.327115,0.326405,0.325697,0.325203,0.324904,0.324642,0.324379,0.324119,0.323543,0.322720,0.322061,0.321601,0.321217,0.320910,0.320604,0.320147,0.319187,0.318760,0.318399,0.317800,0.317137,0.316532,0.316008,0.315513,0.315102,0.314695,0.314223,0.313511,0.312802,0.312379,0.311869,0.311291,0.310817,0.310397,0.309765,0.309356,0.308979,0.308603,0.308078,0.307521,0.306966,0.306519,0.306112,0.305754,0.305396,0.305031,0.304504
4.999886,4.999886,4.999886,4.999886,4.999886,4.999886,4.999886,4.999886,4.999886,4.999886,4.999886,4.999886,4.999886,4.999886,4.999886,4.999886,4.999886,4.999886,4.999886,4.999886,4.999886,4.999886,0.498856,0.493283,0.490062,0.487125,0.484841,0.482832,0.480848,0.479036,0.477250,0.475512,0.473920,0.472344,0.470849,0.469386,0.468024,0.466737,0.465488,0.464237,0.462997,0.461773,0.460554,0.459342,0.458136,0.456934,0.455756,0.454584,0.453485,0.452419,0.451356,0.450309,0.449275,0.448257,0.378404,0.378480,0.378676,0.378871,0.379070,0.379266,0.379464,0.379662,0.379795,0.379920,0.380046,0.380170,0.380396,0.380636,0.380877,0.381116,0.381360,0.381601,0.382037,0.382506,0.382999,0.383518,0.384036,0.384556,0.385043,0.385376,0.385709,0.386042,0.386375,0.386777,0.386940,0.387442,0.387725,0.388008,0.388292,0.388576,0.388834,0.389092,0.389202,0.389310,0.389420,0.389529,0.389639,0.389747,0.389857,0.389966,0.390073,0.390169,0.390264,0.390360,0.390455,0.390550,0.390627,0.390703,0.390783,0.398569,0.398474,0.398377,0.398282,0.398186,0.398090,0.398014,0.397957,0.397898,0.397812,0.397712,0.397536,0.397396,0.404603,0.404158,0.403704,0.403331,0.402957,0.402534,0.401773,0.401237,0.400542,0.399901,0.399340,0.398580,0.397794,0.396944,0.396132,0.395346,0.394307,0.393331,0.392480,0.391574,0.390693,0.384229,0.384047,0.388121,0.387123,0.386401,0.385633,0.384869,0.384184,0.383413,0.382625,0.381988,0.381266,0.380680,0.380096,0.379505,0.378865,0.378292,0.377728,0.377102,0.376367,0.375665,0.375089,0.374481,0.373812,0.373144,0.372495,0.371908,0.371284,0.370662,0.370042,0.369422,0.368831,0.368263,0.367697,0.367130,0.366568,0.366009,0.365480,0.364952,0.364457,0.363969,0.363481,0.362992,0.362504,0.362017,0.361533,0.361095,0.360650,0.360204,0.359761,0.359320,0.358886,0.358494,0.358102,0.357710,0.357318,0.356815,0.356438,0.356074,0.355709,0.355331,0.354848,0.354394,0.354055,0.353716,0.353375,0.352935,0.352496,0.352058,0.351717,0.351408,0.351011,0.350585,0.350160,0.349735,0.349323,0.348997,0.348590,0.348218,0.347886,0.347555,0.347223,0.346781,0.346384,0.346006,0.345630,0.345255,0.344853,0.344421,0.344092,0.343792,0.343491,0.343155,0.342737,0.342320,0.341902,0.341532,0.341271,0.340888,0.340431,0.340020,0.339623,0.339243,0.338964,0.338685,0.338292,0.337896,0.337503,0.337111,0.336747,0.336468,0.336194,0.335918,0.335645,0.335288,0.334804,0.334484,0.334253,0.333971,0.333532,0.333095,0.332692,0.332343,0.332041,0.331790,0.331540,0.331291,0.330898,0.330449,0.330000,0.329665,0.329320,0.328934,0.328676,0.328418,0.328160,0.327656,0.327127,0.326866,0.326653,0.326135,0.325492,0.325078,0.324666,0.324254,0.323843,0.323580,0.323320,0.322639,0.322044,0.321585,0.321127,0.320671,0.320215,0.319848,0.319350,0.318850,0.318490,0.318129,0.317687,0.317024,0.316364,0.315795,0.315267,0.314857,0.314450,0.314042,0.313441,0.312760,0.312366,0.311974,0.311423,0.310846,0.310273,0.309735,0.309357,0.308979,0.308603,0.308226,0.307668,0.307112,0.306659,0.306246,0.305834,0.305423,0.305060,0.304660,0.304200
4.999886,4.999886,4.999886,4.999886,4.999886,4.999886,4.999886,4.999886,4.999886,4.999886,4.999886,4.999886,4.999886,4.999886,4.999886,4.999886,4.999886,4.999886,4.999886,4.999886,4.999886,0.500877,0.495013,0.491486,0.488646,0.486348,0.484194,0.482312,0.480392,0.478640,0.476892,0.475208,0.473631,0.472089,0.470682,0.469369,0.468075,0.466785,0.465541,0.464294,0.463054,0.461826,0.460611,0.459398,0.458190,0.457015,0.455926,0.454843,0.453780,0.452714,0.451649,0.450592,0.449556,0.448545,0.447543,0.378180,0.378375,0.378571,0.378769,0.378965,0.379162,0.379300,0.379424,0.379550,0.379763,0.380003,0.380243,0.380483,0.380724,0.380965,0.381206,0.381447,0.381772,0.382241,0.382712,0.383187,0.383706,0.384225,0.384745,0.385128,0.385459,0.385794,0.386128,0.386461,0.386831,0.386840,0.387439,0.387718,0.387975,0.388231,0.388488,0.388746,0.388946,0.389053,0.389164,0.389273,0.389383,0.389491,0.389600,0.389710,0.389825,0.389930,0.390026,0.390121,0.390216,0.390303,0.390377,0.390464,0.390572,0.398433,0.398336,0.398239,0.398144,0.398049,0.397958,0.397899,0.397842,0.397783,0.397721,0.397616,0.397456,0.397325,0.405662,0.405197,0.404965,0.404735,0.404161,0.403565,0.403077,0.402568,0.402142,0.401718,0.400841,0.399916,0.399202,0.398348,0.397500,0.396652,0.395847,0.394800,0.393700,0.392619,0.391711,0.390809,0.384195,0.389088,0.388011,0.387011,0.386240,0.385473,0.384708,0.384029,0.383387,0.382748,0.382091,0.381238,0.380653,0.380063,0.379421,0.378789,0.378222,0.377601,0.376864,0.376129,0.375462,0.374838,0.374168,0.373499,0.372834,0.372193,0.371610,0.371032,0.370453,0.369877,0.369273,0.368651,0.368049,0.367483,0.366920,0.366357,0.365809,0.365280,0.364753,0.364227,0.363730,0.363241,0.362754,0.362267,0.361786,0.361308,0.360807,0.360365,0.359926,0.359485,0.359049,0.358646,0.358254,0.357861,0.357427,0.356899,0.356467,0.356104,0.355739,0.355300,0.354816,0.354335,0.353974,0.353635,0.353235,0.352796,0.352357,0.351920,0.351531,0.351192,0.350766,0.350340,0.349916,0.349493,0.349109,0.348735,0.348401,0.348069,0.347738,0.347406,0.347027,0.346573,0.346152,0.345775,0.345399,0.345023,0.344591,0.344159,0.343764,0.343464,0.343164,0.342773,0.342354,0.341937,0.341521,0.341106,0.340769,0.340348,0.339950,0.339554,0.339157,0.338763,0.338432,0.338068,0.337674,0.337346,0.337034,0.336722,0.336303,0.335972,0.335698,0.335424,0.335152,0.334729,0.334247,0.333765,0.333513,0.333076,0.332750,0.332443,0.332119,0.331704,0.331292,0.331043,0.330794,0.330433,0.329985,0.329538,0.329175,0.328835,0.328529,0.328271,0.328013,0.327757,0.327347,0.326817,0.326292,0.325794,0.325367,0.324952,0.324541,0.324130,0.323718,0.323309,0.322901,0.322524,0.322028,0.321569,0.321132,0.320701,0.320271,0.319842,0.319414,0.319005,0.318581,0.318221,0.317861,0.317502,0.316911,0.316251,0.315762,0.315373,0.314803,0.314236,0.313797,0.313370,0.312747,0.312354,0.311961,0.311554,0.310978,0.310403,0.309841,0.309406,0.308981,0.308603,0.308229,0.307815,0.307259,0.306799,0.306385,0.305973,0.305562,0.305152,0.304744,0.304346,0.304016
4.999886,4.999886,4.999886,4.999886,4.999886,4.999886,4.999886,4.999886,4.999886,4.999886,4.999886,4.999886,4.999886,4.999886,4.999886,4.999886,4.999886,4.999886,4.999886,4.999886,0.502864,0.496473,0.492958,0.490282,0.487764,0.485697,0.483620,0.481796,0.479937,0.478243,0.476534,0.474914,0.473458,0.472083,0.470712,0.469397,0.468125,0.466837,0.465587,0.464350,0.463109,0.461883,0.460670,0.459541,0.458418,0.457302,0.456214,0.455131,0.454073,0.453007,0.451943,0.450882,0.449840,0.448833,0.447828,0.446853,0.378076,0.378271,0.378468,0.378663,0.378806,0.378932,0.379133,0.379372,0.379611,0.379850,0.380090,0.380329,0.380571,0.380812,0.381052,0.381293,0.381535,0.381977,0.382446,0.382917,0.383387,0.383894,0.384413,0.384880,0.385213,0.385544,0.385878,0.386213,0.386546,0.386674,0.386941,0.387374,0.387631,0.387887,0.388143,0.388400,0.388657,0.388799,0.388907,0.389017,0.389125,0.389235,0.389345,0.389459,0.389573,0.389689,0.389788,0.389882,0.389978,0.390052,0.390145,0.390253,0.390332,0.398273,0.398198,0.398102,0.398006,0.397911,0.397843,0.397786,0.397727,0.397668,0.397611,0.397518,0.397387,0.397254,0.406593,0.406237,0.406006,0.405774,0.405543,0.405223,0.404624,0.404291,0.404068,0.403224,0.402625,0.402072,0.401226,0.400699,0.399366,0.398330,0.397301,0.396359,0.395352,0.394301,0.393254,0.392168,0.384363,0.390058,0.389177,0.388333,0.387386,0.386445,0.385676,0.384897,0.384153,0.383511,0.382869,0.382053,0.381210,0.380625,0.379981,0.379337,0.378720,0.378102,0.377363,0.376626,0.375893,0.375235,0.374619,0.374004,0.373391,0.372744,0.372105,0.371523,0.370945,0.370367,0.369759,0.369144,0.368523,0.367903,0.367286,0.366709,0.366147,0.365607,0.365079,0.364553,0.364045,0.363508,0.363020,0.362537,0.362056,0.361575,0.361072,0.360539,0.360092,0.359652,0.359213,0.358799,0.358405,0.358013,0.357511,0.356983,0.356498,0.356134,0.355751,0.355268,0.354784,0.354303,0.353892,0.353536,0.353096,0.352657,0.352219,0.351781,0.351345,0.350948,0.350563,0.350192,0.349822,0.349452,0.349046,0.348585,0.348253,0.347920,0.347589,0.347258,0.346818,0.346365,0.345919,0.345542,0.345167,0.344761,0.344329,0.343898,0.343469,0.343137,0.342807,0.342389,0.341972,0.341556,0.341140,0.340755,0.340380,0.339979,0.339582,0.339187,0.338792,0.338399,0.337986,0.337673,0.337360,0.337048,0.336736,0.336366,0.335930,0.335495,0.335203,0.334931,0.334655,0.334173,0.333692,0.333212,0.332809,0.332501,0.332195,0.331888,0.331481,0.331067,0.330656,0.330299,0.329968,0.329564,0.329273,0.328985,0.328696,0.328279,0.327868,0.327610,0.327355,0.327037,0.326510,0.325985,0.325553,0.325181,0.324791,0.324378,0.323967,0.323555,0.323145,0.322736,0.322325,0.321910,0.321486,0.321054,0.320622,0.320193,0.319764,0.319336,0.318967,0.318548,0.318003,0.317592,0.317235,0.316798,0.316139,0.315728,0.315344,0.314908,0.314340,0.313775,0.313212,0.312734,0.312340,0.311948,0.311556,0.311109,0.310534,0.309971,0.309535,0.309100,0.308666,0.308233,0.307855,0.307406,0.306939,0.306525,0.306112,0.305712,0.305350,0.304990,0.304630,0.304291,0.303969
4.999886,4.999886,4.999886,4.999886,4.999886,4.999886,4.999886,4.999886,4.999886,4.999886,4.999886,4.999886,4.999886,4.999886,4.999886,4.999886,4.999886,4.999886,4.999886,4.999886,0.498688,0.494590,0.491807,0.489376,0.486967,0.485025,0.483050,0.481237,0.479481,0.477898,0.476376,0.474886,0.473445,0.472081,0.470741,0.469416,0.468152,0.466885,0.465630,0.464393,0.463226,0.462089,0.460951,0.459825,0.458703,0.457594,0.456504,0.455419,0.454362,0.453303,0.452238,0.451175,0.450154,0.449215,0.448276,0.447352,0.378175,0.377973,0.378169,0.378315,0.378505,0.378743,0.378981,0.379220,0.379458,0.379697,0.379937,0.380178,0.380418,0.380658,0.380900,0.381141,0.381382,0.381714,0.382183,0.382651,0.383123,0.383594,0.384083,0.384602,0.384964,0.385298,0.385629,0.385956,0.386250,0.386558,0.386533,0.387054,0.387287,0.387542,0.387798,0.388055,0.388313,0.388544,0.388652,0.388762,0.388870,0.388980,0.389095,0.389209,0.389323,0.389437,0.389549,0.389643,0.389727,0.389825,0.389934,0.390043,0.390092,0.398102,0.398061,0.397964,0.397869,0.397788,0.397729,0.397671,0.397613,0.397566,0.397530,0.397444,0.397316,0.397185,0.407857,0.407551,0.407459,0.407402,0.407037,0.406645,0.406253,0.405931,0.405706,0.405480,0.405255,0.404698,0.403864,0.403621,0.402322,0.401792,0.400515,0.398848,0.397945,0.397141,0.395172,0.393854,0.384549,0.391717,0.390653,0.389652,0.388805,0.387814,0.386649,0.385870,0.385085,0.384302,0.383633,0.382955,0.382016,0.381181,0.380541,0.379895,0.379254,0.378605,0.377907,0.377289,0.376671,0.376028,0.375239,0.374624,0.374009,0.373379,0.372647,0.372019,0.371439,0.370860,0.370246,0.369632,0.369014,0.368394,0.367776,0.367159,0.366544,0.365936,0.365430,0.364933,0.364436,0.363920,0.363337,0.362808,0.362325,0.361845,0.361356,0.360821,0.360288,0.359817,0.359378,0.358950,0.358556,0.358124,0.357594,0.357064,0.356540,0.356164,0.355720,0.355235,0.354752,0.354270,0.353810,0.353396,0.352956,0.352544,0.352146,0.351750,0.351329,0.350909,0.350538,0.350167,0.349797,0.349427,0.348966,0.348483,0.348104,0.347773,0.347441,0.347062,0.346608,0.346157,0.345706,0.345311,0.344932,0.344499,0.344067,0.343638,0.343209,0.342811,0.342423,0.342017,0.341665,0.341313,0.340963,0.340613,0.340173,0.339762,0.339366,0.338971,0.338577,0.338175,0.337734,0.337373,0.337062,0.336750,0.336428,0.335992,0.335557,0.335124,0.334711,0.334439,0.334099,0.333618,0.333160,0.332732,0.332306,0.331947,0.331640,0.331259,0.330846,0.330434,0.330046,0.329705,0.329372,0.329084,0.328794,0.328505,0.328156,0.327725,0.327295,0.326953,0.326697,0.326202,0.325742,0.325370,0.324999,0.324630,0.324260,0.323856,0.323446,0.323036,0.322628,0.322214,0.321798,0.321384,0.320971,0.320545,0.320114,0.319686,0.319267,0.318914,0.318560,0.318092,0.317549,0.317008,0.316611,0.316078,0.315694,0.315310,0.314927,0.314445,0.313879,0.313315,0.312813,0.312363,0.311935,0.311543,0.311153,0.310665,0.310100,0.309664,0.309229,0.308795,0.308362,0.307931,0.307499,0.307100,0.306736,0.306372,0.306009,0.305648,0.305286,0.304927,0.304568,0.304228,0.303910
4.999886,4.999886,4.999886,4.999886,4.999886,4.999886,4.999886,4.999886,4.999886,4.999886,4.999886,4.999886,4.999886,4.999886,4.999886,4.999886,4.999886,4.999886,4.999886,0.500461,0.496189,0.493192,0.490661,0.488473,0.486276,0.484337,0.482572,0.480903,0.479358,0.477779,0.476322,0.474825,0.473434,0.472061,0.470756,0.469435,0.468171,0.466943,0.465796,0.464646,0.463504,0.462372,0.461233,0.460110,0.458990,0.457881,0.456792,0.455710,0.454653,0.453599,0.452579,0.451624,0.450663,0.449710,0.448771,0.447847,0.446939,0.377755,0.377879,0.378116,0.378353,0.378591,0.378829,0.379067,0.379307,0.379546,0.379785,0.380025,0.380266,0.380506,0.380747,0.380987,0.381228,0.381470,0.381920,0.382388,0.382858,0.383329,0.383801,0.384274,0.384717,0.385044,0.385337,0.385629,0.385923,0.386236,0.386444,0.386509,0.387024,0.387246,0.387466,0.387711,0.387968,0.388225,0.388397,0.388507,0.388616,0.388729,0.388844,0.388958,0.389070,0.389186,0.389300,0.389403,0.389507,0.389617,0.389726,0.389833,0.389853,0.389866,0.397896,0.397827,0.397732,0.397673,0.397614,0.397573,0.397539,0.397503,0.397465,0.397359,0.397245,0.397113,0.409137,0.408959,0.408829,0.408770,0.408711,0.408652,0.408547,0.408365,0.408431,0.408497,0.408563,0.408628,0.408523,0.411487,0.420072,0.772477,0.773315,0.774314,0.775390,0.401823,0.398909,0.398102,0.384749,0.393982,0.392594,0.391306,0.390246,0.389278,0.388245,0.387131,0.386173,0.385272,0.384490,0.383756,0.382917,0.382094,0.381363,0.380724,0.380090,0.379440,0.378735,0.378113,0.377492,0.376874,0.376086,0.375245,0.374629,0.374015,0.373282,0.372550,0.371932,0.371350,0.370734,0.370119,0.369507,0.368886,0.368265,0.367647,0.367055,0.366504,0.365875,0.365324,0.364827,0.364332,0.363748,0.363165,0.362594,0.362114,0.361634,0.361105,0.360572,0.360038,0.359543,0.359106,0.358709,0.358207,0.357677,0.357149,0.356622,0.356173,0.355687,0.355203,0.354754,0.354314,0.353855,0.353413,0.353013,0.352614,0.352215,0.351818,0.351355,0.350884,0.350513,0.350143,0.349773,0.349368,0.348886,0.348403,0.347956,0.347624,0.347293,0.346855,0.346401,0.345949,0.345499,0.345081,0.344670,0.344238,0.343808,0.343387,0.343005,0.342602,0.342226,0.341873,0.341521,0.341170,0.340821,0.340415,0.339967,0.339544,0.339149,0.338754,0.338361,0.337924,0.337484,0.337075,0.336764,0.336453,0.336054,0.335620,0.335186,0.334754,0.334321,0.333949,0.333545,0.333110,0.332682,0.332255,0.331829,0.331404,0.331037,0.330682,0.330357,0.330031,0.329708,0.329300,0.328893,0.328604,0.328316,0.328029,0.327602,0.327173,0.326744,0.326317,0.325931,0.325559,0.325188,0.324818,0.324448,0.324079,0.323712,0.323337,0.322928,0.322519,0.322104,0.321688,0.321274,0.320860,0.320449,0.320036,0.319608,0.319213,0.318860,0.318507,0.318155,0.317638,0.317096,0.316556,0.316058,0.315659,0.315276,0.314893,0.314512,0.313983,0.313419,0.312924,0.312474,0.312027,0.311580,0.311140,0.310751,0.310230,0.309793,0.309358,0.308924,0.308536,0.308153,0.307770,0.307389,0.307027,0.306671,0.306308,0.305945,0.305584,0.305223,0.304864,0.304504,0.304164,0.303846
4.999886,4.999886,4.999886,4.999886,4.999886,4.999886,4.999886,4.999886,4.999886,4.999886,4.999886,4.999886,4.999886,4.999886,4.999886,4.999886,4.999886,4.999886,0.502257,0.497675,0.494735,0.492079,0.489707,0.487571,0.485719,0.483964,0.482370,0.480703,0.479213,0.477661,0.476231,0.474765,0.473402,0.472042,0.470737,0.469529,0.468342,0.467161,0.466071,0.464916,0.463781,0.462655,0.461517,0.460394,0.459275,0.458172,0.457081,0.456020,0.455028,0.454041,0.453101,0.452144,0.451181,0.450208,0.449265,0.448343,0.447433,0.446516,0.377603,0.377845,0.378116,0.378386,0.378657,0.378917,0.379155,0.379394,0.379634,0.379873,0.380113,0.380353,0.380593,0.380834,0.381074,0.381317,0.381656,0.382124,0.382594,0.383064,0.383535,0.383994,0.384413,0.384721,0.385012,0.385305,0.385598,0.385915,0.386259,0.386253,0.386774,0.386994,0.387214,0.387436,0.387657,0.387879,0.388137,0.388251,0.388366,0.388479,0.388593,0.388707,0.388819,0.388933,0.389046,0.389185,0.389299,0.389407,0.389516,0.389601,0.389614,0.389656,0.397726,0.397690,0.397617,0.397582,0.397546,0.397512,0.397475,0.397439,0.397379,0.397274,0.397167,0.397043,0.410794,0.410612,0.410485,0.410419,0.410357,0.410537,0.410858,0.411143,0.411237,0.412374,0.413033,0.415429,0.418466,0.424303,0.770921,0.771630,0.772369,0.773315,0.774348,0.775568,0.776994,0.778759,0.384957,0.385208,0.398022,0.394255,0.392868,0.391435,0.389986,0.388822,0.387840,0.386863,0.385909,0.384974,0.384071,0.383229,0.382494,0.381761,0.381073,0.380430,0.379707,0.378986,0.378316,0.377696,0.377078,0.376144,0.375250,0.374633,0.373920,0.373185,0.372452,0.371841,0.371223,0.370607,0.369993,0.369379,0.368757,0.368197,0.367643,0.367092,0.366503,0.365824,0.365220,0.364722,0.364160,0.363575,0.362994,0.362413,0.361902,0.361390,0.360855,0.360322,0.359790,0.359271,0.358824,0.358292,0.357761,0.357278,0.356797,0.356265,0.355821,0.355380,0.354938,0.354498,0.353997,0.353483,0.353083,0.352684,0.352286,0.351858,0.351381,0.350904,0.350488,0.350117,0.349748,0.349288,0.348804,0.348325,0.347844,0.347476,0.347100,0.346646,0.346194,0.345743,0.345291,0.344864,0.344479,0.344094,0.343711,0.343329,0.342948,0.342501,0.342082,0.341730,0.341378,0.341028,0.340658,0.340208,0.339761,0.339327,0.338933,0.338539,0.338115,0.337674,0.337234,0.336796,0.336467,0.336117,0.335682,0.335247,0.334815,0.334383,0.333961,0.333582,0.333155,0.332743,0.332333,0.331921,0.331512,0.331089,0.330668,0.330343,0.330018,0.329694,0.329329,0.328899,0.328469,0.328126,0.327839,0.327480,0.327050,0.326623,0.326228,0.325908,0.325506,0.325115,0.324725,0.324336,0.323949,0.323562,0.323175,0.322799,0.322408,0.321992,0.321577,0.321172,0.320767,0.320365,0.319962,0.319561,0.319160,0.318806,0.318454,0.318102,0.317725,0.317183,0.316644,0.316151,0.315710,0.315268,0.314859,0.314477,0.314089,0.313523,0.313035,0.312586,0.312138,0.311691,0.311245,0.310801,0.310380,0.309994,0.309608,0.309222,0.308837,0.308453,0.308070,0.307688,0.307307,0.306944,0.306593,0.306242,0.305882,0.305521,0.305160,0.304801,0.304442,0.304101,0.303782
4.999886,4.999886,4.999886,4.999886,4.999886,4.999886,4.999886,4.999886,4.999886,4.999886,4.999886,4.999886,4.999886,4.999886,4.999886,4.999886,4.999886,0.505962,0.499434,0.495942,0.493294,0.491012,0.489011,0.487078,0.485405,0.483654,0.482124,0.480502,0.479023,0.477546,0.476115,0.474705,0.473376,0.472157,0.470951,0.469750,0.468562,0.467409,0.466334,0.465192,0.464058,0.462935,0.461800,0.460680,0.459571,0.458542,0.457518,0.456516,0.455524,0.454539,0.453625,0.452665,0.451700,0.450725,0.449760,0.448838,0.447926,0.447015,0.446134,0.377510,0.377750,0.378018,0.378289,0.378561,0.378833,0.379104,0.379377,0.379649,0.379922,0.380196,0.380441,0.380682,0.380922,0.381163,0.381406,0.381860,0.382329,0.382762,0.383172,0.383584,0.384011,0.384397,0.384688,0.384981,0.385272,0.385594,0.385937,0.386250,0.386169,0.386744,0.386964,0.387184,0.387404,0.387626,0.387843,0.387998,0.388111,0.388223,0.388337,0.388449,0.388562,0.388675,0.388798,0.388949,0.389089,0.389198,0.389307,0.389362,0.389390,0.389466,0.397628,0.397584,0.397555,0.397519,0.397484,0.397448,0.397412,0.397376,0.397295,0.397188,0.397083,0.396973,0.412197,0.412202,0.412324,0.412551,0.412775,0.412999,0.413648,0.414452,0.415459,0.416596,0.419251,0.421616,0.769168,0.769659,0.770145,0.770785,0.771522,0.772324,0.773360,0.774434,0.775826,0.777287,0.385184,0.385252,0.788190,4.999886,4.999886,4.999886,0.394547,0.391766,0.390403,0.389056,0.387763,0.386595,0.385663,0.384820,0.383980,0.383135,0.382293,0.381454,0.380698,0.379974,0.379252,0.378534,0.377901,0.377141,0.376199,0.375265,0.374561,0.373823,0.373145,0.372469,0.371829,0.371218,0.370609,0.370004,0.369346,0.368790,0.368234,0.367681,0.367130,0.366453,0.365773,0.365115,0.364572,0.363988,0.363404,0.362823,0.362242,0.361681,0.361158,0.360637,0.360115,0.359598,0.359057,0.358571,0.358086,0.357602,0.357120,0.356525,0.356006,0.355563,0.355122,0.354680,0.354142,0.353605,0.353153,0.352753,0.352355,0.351884,0.351407,0.350930,0.350462,0.350093,0.349691,0.349206,0.348726,0.348244,0.347764,0.347328,0.346891,0.346460,0.346073,0.345685,0.345298,0.344845,0.344421,0.344037,0.343653,0.343271,0.342861,0.342398,0.341939,0.341586,0.341236,0.340885,0.340450,0.340002,0.339554,0.339110,0.338716,0.338306,0.337865,0.337424,0.336985,0.336546,0.336170,0.335744,0.335314,0.334942,0.334572,0.334201,0.333833,0.333371,0.332935,0.332523,0.332113,0.331703,0.331294,0.330817,0.330333,0.330004,0.329681,0.329356,0.328927,0.328497,0.328068,0.327650,0.327358,0.326928,0.326553,0.326232,0.325913,0.325559,0.325154,0.324760,0.324371,0.323983,0.323596,0.323210,0.322824,0.322445,0.322071,0.321671,0.321265,0.320862,0.320459,0.320056,0.319655,0.319242,0.318811,0.318400,0.318048,0.317697,0.317272,0.316732,0.316246,0.315802,0.315361,0.314921,0.314482,0.314063,0.313628,0.313147,0.312697,0.312258,0.311860,0.311463,0.311066,0.310672,0.310277,0.309901,0.309524,0.309139,0.308754,0.308370,0.307988,0.307606,0.307225,0.306861,0.306511,0.306161,0.305811,0.305457,0.305096,0.304737,0.304379,0.304037,0.303719
4.999886,4.999886,4.999886,4.999886,4.999886,4.999886,4.999886,4.999886,4.999886,4.999886,4.999886,4.999886,4.999886,4.999886,4.999886,4.999886,4.999886,0.501131,0.497403,0.494658,0.492576,0.490408,0.488564,0.486646,0.485059,0.483344,0.481838,0.480300,0.478832,0.477405,0.476093,0.474791,0.473556,0.472317,0.471175,0.469973,0.468782,0.467659,0.466585,0.465467,0.464335,0.463211,0.462144,0.461101,0.460063,0.459034,0.458007,0.457007,0.456022,0.455038,0.454124,0.453187,0.452220,0.451241,0.450268,0.449413,0.448554,0.447698,0.446880,0.446007,0.377416,0.377653,0.377922,0.378194,0.378464,0.378736,0.379007,0.379280,0.379552,0.379825,0.380098,0.380371,0.380646,0.380921,0.381195,0.381538,0.381945,0.382353,0.382763,0.383179,0.383609,0.384042,0.384365,0.384656,0.384948,0.385274,0.385616,0.385960,0.385994,0.386493,0.386713,0.386934,0.387154,0.387373,0.387549,0.387725,0.387854,0.387966,0.388080,0.388192,0.388304,0.388418,0.388563,0.388714,0.388864,0.388990,0.389096,0.389124,0.389200,0.397593,0.397545,0.397513,0.397492,0.397456,0.397421,0.397385,0.397350,0.397314,0.397209,0.397102,0.396997,0.396895,0.413878,0.414126,0.414375,0.414613,0.415289,0.415836,0.416568,0.417743,0.419013,0.420964,0.424300,0.768193,0.768503,0.768948,0.769433,0.769936,0.770683,0.771437,0.772335,0.773377,0.774566,0.776027,0.385442,0.385359,0.783572,4.999886,4.999886,4.999886,4.999886,4.999886,4.999886,4.999886,4.999886,0.389500,0.388186,0.387006,0.385844,0.384728,0.383887,0.383043,0.382250,0.381458,0.380572,0.379663,0.378799,0.378105,0.377198,0.376448,0.375702,0.374774,0.374100,0.373428,0.372695,0.372020,0.371409,0.370799,0.370121,0.369438,0.368827,0.368273,0.367720,0.367084,0.366402,0.365722,0.365065,0.364493,0.363926,0.363361,0.362798,0.362167,0.361563,0.361041,0.360519,0.359998,0.359416,0.358899,0.358413,0.357927,0.357411,0.356808,0.356207,0.355747,0.355306,0.354824,0.354285,0.353748,0.353224,0.352824,0.352390,0.351910,0.351432,0.350956,0.350480,0.350067,0.349610,0.349127,0.348644,0.348195,0.347778,0.347319,0.346890,0.346500,0.346112,0.345724,0.345331,0.344833,0.344362,0.343978,0.343595,0.343213,0.342759,0.342296,0.341833,0.341443,0.341092,0.340693,0.340243,0.339795,0.339348,0.338903,0.338498,0.338055,0.337614,0.337175,0.336754,0.336360,0.335930,0.335557,0.335185,0.334815,0.334444,0.334074,0.333636,0.333162,0.332715,0.332304,0.331894,0.331485,0.331030,0.330545,0.330063,0.329666,0.329342,0.328955,0.328525,0.328096,0.327670,0.327243,0.326879,0.326558,0.326238,0.325918,0.325598,0.325211,0.324806,0.324406,0.324018,0.323631,0.323244,0.322858,0.322481,0.322107,0.321733,0.321360,0.320955,0.320552,0.320148,0.319747,0.319342,0.318911,0.318481,0.318052,0.317644,0.317295,0.316820,0.316339,0.315897,0.315455,0.315014,0.314575,0.314142,0.313748,0.313354,0.312953,0.312552,0.312154,0.311755,0.311359,0.310963,0.310568,0.310173,0.309799,0.309426,0.309053,0.308672,0.308288,0.307906,0.307524,0.307144,0.306779,0.306428,0.306079,0.305730,0.305381,0.305033,0.304674,0.304316,0.303974,0.303655
4.999886,4.999886,4.999886,4.999886,4.999886,4.999886,4.999886,4.999886,4.999886,4.999886,4.999886,4.999886,4.999886,4.999886,4.999886,4.999886,0.502644,0.499391,0.496081,0.493857,0.491968,0.489815,0.488084,0.486251,0.484667,0.483054,0.481550,0.480166,0.478843,0.477502,0.476238,0.474933,0.473725,0.472476,0.471332,0.470197,0.469002,0.467910,0.466833,0.465752,0.464710,0.463670,0.462639,0.461596,0.460556,0.459525,0.458496,0.457498,0.456516,0.455540,0.454622,0.453709,0.452741,0.451815,0.450989,0.450125,0.449248,0.448391,0.447564,0.446769,0.445882,0.377325,0.377556,0.377827,0.378097,0.378368,0.378639,0.378911,0.379182,0.379454,0.379728,0.380001,0.380274,0.380543,0.380848,0.381155,0.381539,0.381948,0.382356,0.382777,0.383208,0.383640,0.384042,0.384333,0.384625,0.384955,0.385298,0.385641,0.385981,0.385869,0.386464,0.386683,0.386903,0.387077,0.387253,0.387430,0.387598,0.387710,0.387823,0.387935,0.388047,0.388177,0.388328,0.388479,0.388629,0.388781,0.388873,0.388935,0.389011,0.397510,0.397468,0.397444,0.397421,0.397394,0.397358,0.397323,0.397287,0.397230,0.397123,0.397018,0.396916,0.396850,0.415813,0.416026,0.416525,0.417045,0.417663,0.418652,0.419526,0.421139,0.423270,0.767075,0.767260,0.767558,0.767850,0.768210,0.768689,0.769168,0.769783,0.770513,0.771335,0.772312,0.773457,0.774766,0.385808,0.385490,0.781144,0.788504,4.999886,4.999886,4.999886,4.999886,4.999886,4.999886,4.999886,4.999886,4.999886,4.999886,4.999886,0.388334,0.386449,0.385299,0.384284,0.383173,0.382255,0.381465,0.380589,0.379681,0.378737,0.377860,0.377110,0.376361,0.375058,0.374383,0.373684,0.372919,0.372210,0.371598,0.370912,0.370225,0.369541,0.368866,0.368312,0.367718,0.367033,0.366366,0.365713,0.365065,0.364495,0.363928,0.363362,0.362725,0.361974,0.361446,0.360923,0.360379,0.359796,0.359227,0.358739,0.358254,0.357695,0.357090,0.356488,0.355932,0.355489,0.354968,0.354428,0.353890,0.353353,0.352893,0.352415,0.351936,0.351458,0.350982,0.350520,0.350066,0.349644,0.349224,0.348804,0.348386,0.347969,0.347451,0.346929,0.346538,0.346150,0.345762,0.345319,0.344823,0.344327,0.343919,0.343536,0.343122,0.342657,0.342194,0.341732,0.341300,0.340936,0.340487,0.340037,0.339589,0.339143,0.338720,0.338308,0.337909,0.337512,0.337115,0.336718,0.336306,0.335810,0.335428,0.335058,0.334686,0.334316,0.333903,0.333426,0.332951,0.332495,0.332084,0.331676,0.331242,0.330758,0.330274,0.329792,0.329329,0.328983,0.328554,0.328124,0.327747,0.327371,0.326991,0.326564,0.326243,0.325922,0.325603,0.325269,0.324864,0.324460,0.324058,0.323666,0.323278,0.322893,0.322518,0.322143,0.321770,0.321397,0.321026,0.320645,0.320242,0.319841,0.319440,0.319012,0.318582,0.318151,0.317723,0.317296,0.316893,0.316434,0.316011,0.315612,0.315214,0.314817,0.314421,0.314026,0.313632,0.313238,0.312844,0.312448,0.312049,0.311651,0.311255,0.310860,0.310465,0.310071,0.309696,0.309324,0.308951,0.308580,0.308205,0.307823,0.307442,0.307062,0.306697,0.306347,0.305997,0.305648,0.305299,0.304952,0.304606,0.304253,0.303910,0.303593
4.999886,4.999886,4.999886,4.999886,4.999886,4.999886,4.999886,4.999886,4.999886,4.999886,4.999886,4.999886,4.999886,4.999886,4.999886,0.505857,0.500942,0.497932,0.495272,0.493106,0.491284,0.489296,0.487569,0.485857,0.484349,0.482928,0.481575,0.480194,0.478922,0.477600,0.476322,0.475077,0.473847,0.472655,0.471486,0.470353,0.469264,0.468219,0.467178,0.466218,0.465205,0.464165,0.463127,0.462093,0.461050,0.460017,0.458988,0.457991,0.457007,0.456039,0.455135,0.454234,0.453370,0.452540,0.451712,0.450872,0.449953,0.449084,0.448253,0.447454,0.446655,0.445755,0.377233,0.377461,0.377730,0.378000,0.378271,0.378542,0.378814,0.379085,0.379357,0.379624,0.379898,0.380204,0.380509,0.380816,0.381134,0.381542,0.381949,0.382379,0.382808,0.383239,0.383671,0.384009,0.384301,0.384636,0.384978,0.385320,0.385663,0.385753,0.385893,0.386432,0.386609,0.386784,0.386960,0.387136,0.387311,0.387453,0.387566,0.387678,0.387793,0.387943,0.388094,0.388244,0.388395,0.388546,0.388670,0.388746,0.388822,0.397426,0.397399,0.397375,0.397352,0.397329,0.397296,0.397260,0.397224,0.397144,0.397039,0.396935,0.396869,0.417382,0.417838,0.418319,0.418757,0.419498,0.420342,0.421791,0.423465,0.426618,0.766363,0.766486,0.766621,0.766879,0.767159,0.767485,0.767912,0.768373,0.768931,0.769586,0.770417,0.771256,0.772358,0.773514,0.774984,0.385641,0.779014,0.782572,4.999886,4.999886,4.999886,4.999886,4.999886,4.999886,4.999886,4.999886,4.999886,4.999886,4.999886,4.999886,4.999886,4.999886,4.999886,4.999886,0.385135,0.384144,0.382987,0.381777,0.380559,0.379603,0.378650,0.377774,0.377023,0.375640,0.374667,0.373911,0.373144,0.372397,0.371705,0.371015,0.370328,0.369644,0.368961,0.368349,0.367678,0.367020,0.366366,0.365713,0.365065,0.364496,0.363930,0.363282,0.362529,0.361852,0.361327,0.360761,0.360176,0.359594,0.359067,0.358581,0.357980,0.357373,0.356770,0.356169,0.355653,0.355112,0.354572,0.354064,0.353565,0.353043,0.352587,0.352135,0.351685,0.351234,0.350786,0.350294,0.349837,0.349416,0.348997,0.348577,0.348151,0.347584,0.347018,0.346578,0.346189,0.345801,0.345309,0.344812,0.344316,0.343862,0.343479,0.343018,0.342554,0.342092,0.341630,0.341170,0.340747,0.340352,0.339958,0.339565,0.339173,0.338734,0.338271,0.337873,0.337474,0.337078,0.336681,0.336206,0.335710,0.335301,0.334929,0.334558,0.334169,0.333693,0.333217,0.332742,0.332276,0.331866,0.331454,0.330970,0.330486,0.330003,0.329522,0.329048,0.328642,0.328265,0.327889,0.327513,0.327138,0.326728,0.326298,0.325927,0.325607,0.325289,0.324921,0.324517,0.324115,0.323712,0.323313,0.322929,0.322554,0.322180,0.321806,0.321433,0.321061,0.320691,0.320321,0.319934,0.319533,0.319112,0.318681,0.318252,0.317823,0.317438,0.317065,0.316694,0.316293,0.315893,0.315495,0.315097,0.314701,0.314304,0.313909,0.313516,0.313123,0.312728,0.312336,0.311943,0.311548,0.311151,0.310756,0.310362,0.309968,0.309593,0.309220,0.308849,0.308477,0.308107,0.307739,0.307360,0.306980,0.306615,0.306264,0.305914,0.305567,0.305218,0.304871,0.304525,0.304183,0.303888,0.303611
4.999886,4.999886,4.999886,4.999886,4.999886,4.999886,4.999886,4.999886,4.999886,4.999886,4.999886,4.999886,4.999886,4.999886,0.510263,0.502517,0.499446,0.496487,0.494439,0.492409,0.490592,0.488776,0.487200,0.485728,0.484299,0.482868,0.481599,0.480227,0.478940,0.477700,0.476405,0.475187,0.473969,0.472838,0.471781,0.470714,0.469651,0.468602,0.467559,0.466648,0.465705,0.464658,0.463619,0.462586,0.461545,0.460512,0.459511,0.458578,0.457650,0.456745,0.455861,0.454959,0.454098,0.453268,0.452439,0.451610,0.450702,0.449784,0.448944,0.448140,0.447341,0.446531,0.445539,0.377139,0.377365,0.377634,0.377905,0.378175,0.378443,0.378711,0.378977,0.379258,0.379563,0.379865,0.380171,0.380474,0.380781,0.381137,0.381553,0.381980,0.382409,0.382839,0.383268,0.383688,0.383978,0.384319,0.384659,0.385001,0.385343,0.385685,0.385588,0.386139,0.386314,0.386491,0.386666,0.386841,0.387017,0.387193,0.387310,0.387422,0.387559,0.387710,0.387860,0.388015,0.388188,0.388359,0.388475,0.388557,0.388634,0.397352,0.397329,0.397307,0.397283,0.397260,0.397233,0.397197,0.397162,0.397060,0.396955,0.396890,0.396823,0.419446,0.419884,0.420512,0.421326,0.422319,0.423346,0.425514,0.765764,0.765747,0.765803,0.765898,0.766010,0.766245,0.766503,0.766772,0.767198,0.767620,0.768120,0.768751,0.769456,0.770298,0.771222,0.772386,0.773617,0.385797,0.777247,0.780034,4.999886,4.999886,4.999886,4.999886,4.999886,4.999886,4.999886,4.999886,4.999886,4.999886,4.999886,4.999886,4.999886,4.999886,4.999886,4.999886,4.999886,4.999886,4.999886,4.999886,4.999886,0.382836,0.381645,0.380134,0.378561,0.377687,0.376292,0.375160,0.374421,0.373751,0.372988,0.372135,0.371417,0.370701,0.369987,0.369277,0.368480,0.367676,0.367020,0.366366,0.365712,0.365067,0.364499,0.363841,0.363085,0.362334,0.361731,0.361143,0.360557,0.359974,0.359394,0.358873,0.358263,0.357659,0.357080,0.356543,0.355957,0.355425,0.354923,0.354420,0.353920,0.353382,0.352856,0.352403,0.351951,0.351501,0.351027,0.350527,0.350031,0.349608,0.349188,0.348770,0.348284,0.347716,0.347151,0.346617,0.346229,0.345798,0.345297,0.344800,0.344305,0.343810,0.343381,0.342915,0.342491,0.342085,0.341680,0.341243,0.340809,0.340412,0.340020,0.339626,0.339222,0.338722,0.338234,0.337835,0.337438,0.337041,0.336603,0.336106,0.335610,0.335172,0.334801,0.334430,0.333958,0.333482,0.333007,0.332533,0.332060,0.331647,0.331182,0.330698,0.330214,0.329772,0.329335,0.328879,0.328408,0.328031,0.327654,0.327280,0.326896,0.326466,0.326037,0.325612,0.325294,0.324976,0.324574,0.324172,0.323769,0.323368,0.323029,0.322646,0.322261,0.321875,0.321492,0.321109,0.320727,0.320356,0.319986,0.319618,0.319213,0.318816,0.318440,0.318065,0.317692,0.317319,0.316946,0.316574,0.316178,0.315777,0.315377,0.314980,0.314584,0.314189,0.313794,0.313400,0.313007,0.312613,0.312220,0.311829,0.311439,0.311048,0.310653,0.310258,0.309866,0.309491,0.309118,0.308747,0.308375,0.308006,0.307637,0.307270,0.306898,0.306532,0.306182,0.305833,0.305517,0.305205,0.304895,0.304585,0.304275,0.303977,0.303711
4.999886,4.999886,4.999886,4.999886,4.999886,4.999886,4.999886,4.999886,4.999886,4.999886,4.999886,4.999886,4.999886,4.999886,0.504946,0.500970,0.498197,0.495649,0.493608,0.491834,0.490163,0.488617,0.487057,0.485587,0.484246,0.482810,0.481539,0.480258,0.478957,0.477720,0.476502,0.475374,0.474265,0.473167,0.472098,0.471101,0.470039,0.468985,0.467974,0.467078,0.466185,0.465157,0.464115,0.463078,0.462085,0.461146,0.460211,0.459275,0.458342,0.457440,0.456582,0.455685,0.454825,0.453994,0.453164,0.452337,0.451451,0.450530,0.449724,0.448915,0.448109,0.447307,0.446548,0.445723,0.377047,0.377268,0.377536,0.377801,0.378065,0.378333,0.378620,0.378922,0.379225,0.379530,0.379834,0.380138,0.380443,0.380748,0.381155,0.381583,0.382010,0.382439,0.382869,0.383299,0.383661,0.384001,0.384342,0.384680,0.385015,0.385351,0.385516,0.385584,0.386045,0.386203,0.386372,0.386548,0.386723,0.386898,0.387054,0.387177,0.387326,0.387490,0.387662,0.387833,0.388007,0.388170,0.388271,0.388369,0.388445,0.397281,0.397259,0.397236,0.397215,0.397191,0.397168,0.397134,0.397081,0.396976,0.396910,0.396844,0.396776,0.421513,0.422380,0.423252,0.424126,0.425588,0.427331,0.765311,0.765272,0.765239,0.765255,0.765339,0.765423,0.765591,0.765837,0.766089,0.766475,0.766890,0.767288,0.767923,0.768570,0.769343,0.770236,0.771239,0.772449,0.385960,0.775574,0.777904,0.781580,4.999886,4.999886,4.999886,4.999886,4.999886,4.999886,4.999886,4.999886,4.999886,4.999886,4.999886,4.999886,4.999886,4.999886,4.999886,4.999886,4.999886,4.999886,4.999886,4.999886,4.999886,4.999886,4.999886,4.999886,4.999886,0.379982,0.378261,0.376611,0.375337,0.374477,0.373635,0.372770,0.371908,0.371183,0.370448,0.369643,0.368839,0.368035,0.367231,0.366431,0.365713,0.365069,0.364403,0.363644,0.362952,0.362284,0.361625,0.361023,0.360423,0.359825,0.359234,0.358690,0.358147,0.357606,0.357067,0.356498,0.355808,0.355280,0.354776,0.354275,0.353722,0.353150,0.352671,0.352219,0.351765,0.351263,0.350762,0.350263,0.349802,0.349381,0.348961,0.348417,0.347849,0.347282,0.346718,0.346267,0.345786,0.345288,0.344789,0.344342,0.343904,0.343449,0.343040,0.342633,0.342226,0.341821,0.341333,0.340871,0.340475,0.340081,0.339688,0.339210,0.338710,0.338212,0.337799,0.337400,0.337001,0.336503,0.336006,0.335509,0.335044,0.334673,0.334225,0.333747,0.333272,0.332798,0.332323,0.331852,0.331396,0.330939,0.330499,0.330061,0.329624,0.329187,0.328701,0.328214,0.327797,0.327421,0.327046,0.326634,0.326204,0.325775,0.325347,0.324980,0.324632,0.324228,0.323826,0.323499,0.323174,0.322829,0.322451,0.322066,0.321683,0.321298,0.320917,0.320535,0.320155,0.319775,0.319407,0.319061,0.318695,0.318320,0.317946,0.317570,0.317200,0.316827,0.316456,0.316062,0.315661,0.315262,0.314864,0.314467,0.314071,0.313677,0.313284,0.312891,0.312497,0.312106,0.311714,0.311324,0.310935,0.310547,0.310156,0.309763,0.309388,0.309015,0.308644,0.308274,0.307904,0.307537,0.307200,0.306865,0.306544,0.306234,0.305921,0.305609,0.305298,0.304987,0.304676,0.304367,0.304066,0.303799
4.999886,4.999886,4.999886,4.999886,4.999886,4.999886,4.999886,4.999886,4.999886,4.999886,4.999886,4.999886,4.999886,0.507382,0.502514,0.499462,0.496988,0.494994,0.493150,0.491590,0.489920,0.488391,0.486919,0.485443,0.484125,0.482756,0.481480,0.480216,0.479045,0.477905,0.476771,0.475676,0.474553,0.473494,0.472402,0.471416,0.470429,0.469369,0.468407,0.467509,0.466614,0.465659,0.464615,0.463695,0.462833,0.461848,0.460913,0.459972,0.459038,0.458140,0.457276,0.456411,0.455554,0.454720,0.453890,0.453062,0.452206,0.451400,0.450595,0.449793,0.448984,0.448220,0.447539,0.446727,0.445907,0.377088,0.377160,0.377423,0.377688,0.377984,0.378285,0.378587,0.378891,0.379184,0.379472,0.379761,0.380079,0.380398,0.380740,0.381167,0.381597,0.382027,0.382457,0.382888,0.383330,0.383665,0.384000,0.384333,0.384667,0.385002,0.385381,0.385322,0.385845,0.386004,0.386162,0.386321,0.386479,0.386637,0.386796,0.386968,0.387140,0.387310,0.387482,0.387654,0.387826,0.387968,0.388068,0.388169,0.388258,0.397212,0.397189,0.397167,0.397144,0.397122,0.397099,0.397072,0.396995,0.396929,0.396863,0.396797,0.396731,0.423909,0.424790,0.426100,0.427418,0.765177,0.765010,0.764831,0.764764,0.764714,0.764686,0.764742,0.764820,0.764960,0.765183,0.765412,0.765747,0.766150,0.766548,0.767075,0.767721,0.768373,0.769224,0.770140,0.771250,0.386131,0.774085,0.776022,0.778834,4.999886,4.999886,4.999886,4.999886,4.999886,4.999886,4.999886,4.999886,4.999886,4.999886,4.999886,4.999886,4.999886,4.999886,4.999886,4.999886,4.999886,4.999886,4.999886,4.999886,4.999886,4.999886,4.999886,4.999886,4.999886,4.999886,4.999886,4.999886,4.999886,0.378176,0.376515,0.374826,0.373828,0.372887,0.371882,0.370811,0.370003,0.369197,0.368396,0.367593,0.366790,0.365999,0.365263,0.364537,0.363891,0.363245,0.362438,0.361714,0.361111,0.360531,0.360009,0.359249,0.358676,0.358134,0.357593,0.357040,0.356348,0.355658,0.355133,0.354631,0.354063,0.353489,0.352941,0.352487,0.352001,0.351498,0.350997,0.350497,0.349999,0.349573,0.349120,0.348551,0.347981,0.347415,0.346850,0.346326,0.345883,0.345441,0.344999,0.344559,0.344106,0.343590,0.343182,0.342774,0.342368,0.341913,0.341423,0.340936,0.340537,0.340143,0.339700,0.339199,0.338698,0.338200,0.337761,0.337363,0.336901,0.336402,0.335904,0.335409,0.334915,0.334492,0.334014,0.333538,0.333078,0.332631,0.332185,0.331740,0.331229,0.330788,0.330350,0.329911,0.329475,0.329010,0.328523,0.328036,0.327563,0.327188,0.326802,0.326371,0.325942,0.325513,0.325086,0.324668,0.324295,0.323970,0.323645,0.323320,0.322997,0.322630,0.322252,0.321872,0.321488,0.321105,0.320723,0.320343,0.319963,0.319592,0.319257,0.318913,0.318554,0.318195,0.317825,0.317452,0.317080,0.316708,0.316336,0.315946,0.315545,0.315146,0.314749,0.314351,0.313955,0.313562,0.313169,0.312776,0.312383,0.311991,0.311600,0.311210,0.310821,0.310433,0.310046,0.309660,0.309307,0.308967,0.308628,0.308289,0.307951,0.307614,0.307277,0.306941,0.306616,0.306314,0.306012,0.305702,0.305390,0.305079,0.304769,0.304459,0.304153,0.303887
4.999886,4.999886,4.999886,4.999886,4.999886,4.999886,4.999886,4.999886,4.999886,4.999886,4.999886,4.999886,0.509760,0.504460,0.501052,0.498707,0.496306,0.494579,0.492738,0.491284,0.489678,0.488164,0.486745,0.485301,0.483984,0.482712,0.481566,0.480401,0.479259,0.478173,0.477037,0.475942,0.474853,0.473774,0.472719,0.471717,0.470733,0.469752,0.468841,0.467939,0.467047,0.466158,0.465291,0.464424,0.463559,0.462600,0.461615,0.460676,0.459734,0.458839,0.458011,0.457197,0.456401,0.455580,0.454762,0.453947,0.453148,0.452372,0.451517,0.450667,0.449863,0.449161,0.448479,0.447725,0.446904,0.446087,0.445267,0.377050,0.377342,0.377628,0.377914,0.378201,0.378487,0.378778,0.379095,0.379413,0.379732,0.380051,0.380370,0.380749,0.381178,0.381606,0.382037,0.382476,0.382921,0.383320,0.383653,0.383985,0.384319,0.384653,0.385047,0.385252,0.385313,0.385805,0.385963,0.386121,0.386278,0.386438,0.386607,0.386789,0.386960,0.387131,0.387303,0.387473,0.387645,0.387765,0.387864,0.387965,0.388065,0.397140,0.397117,0.397095,0.397072,0.397051,0.397028,0.397006,0.396950,0.396883,0.396817,0.396751,0.396685,0.426620,0.427507,0.429961,0.764988,0.764731,0.764541,0.764363,0.764257,0.764185,0.764135,0.764185,0.764240,0.764329,0.764547,0.764759,0.765004,0.765390,0.765781,0.766212,0.766817,0.767468,0.768204,0.769117,0.770094,0.386307,0.772671,0.774497,0.776809,0.780527,4.999886,4.999886,4.999886,4.999886,4.999886,4.999886,4.999886,4.999886,4.999886,4.999886,4.999886,4.999886,4.999886,4.999886,4.999886,4.999886,4.999886,4.999886,4.999886,4.999886,4.999886,4.999886,4.999886,4.999886,4.999886,4.999886,4.999886,4.999886,4.999886,4.999886,4.999886,4.999886,4.999886,0.374580,0.373407,0.372161,0.370995,0.369929,0.368870,0.367990,0.367327,0.366670,0.365893,0.364834,0.364184,0.363460,0.362591,0.361804,0.361266,0.360741,0.360194,0.359364,0.358662,0.358120,0.357579,0.356890,0.356198,0.355510,0.354981,0.354405,0.353830,0.353257,0.352741,0.352238,0.351734,0.351232,0.350733,0.350233,0.349766,0.349255,0.348684,0.348159,0.347683,0.347206,0.346709,0.346104,0.345661,0.345218,0.344778,0.344301,0.343775,0.343324,0.342915,0.342494,0.342004,0.341515,0.341025,0.340599,0.340191,0.339688,0.339187,0.338686,0.338187,0.337724,0.337299,0.336799,0.336301,0.335804,0.335344,0.334897,0.334388,0.333937,0.333488,0.333039,0.332593,0.332146,0.331701,0.331163,0.330639,0.330201,0.329763,0.329321,0.328832,0.328345,0.327858,0.327374,0.326956,0.326539,0.326110,0.325681,0.325276,0.324883,0.324483,0.324116,0.323791,0.323467,0.323142,0.322810,0.322431,0.322053,0.321677,0.321293,0.320912,0.320531,0.320150,0.319777,0.319440,0.319106,0.318765,0.318406,0.318049,0.317692,0.317333,0.316961,0.316589,0.316218,0.315830,0.315430,0.315031,0.314634,0.314237,0.313842,0.313447,0.313053,0.312661,0.312268,0.311877,0.311494,0.311135,0.310778,0.310422,0.310066,0.309713,0.309376,0.309045,0.308705,0.308366,0.308028,0.307691,0.307354,0.307019,0.306690,0.306387,0.306086,0.305784,0.305483,0.305172,0.304861,0.304551,0.304242,0.303975
4.999886,4.999886,4.999886,4.999886,4.999886,4.999886,4.999886,4.999886,4.999886,4.999886,4.999886,4.999886,0.506365,0.502716,0.500005,0.498018,0.495806,0.494150,0.492379,0.490939,0.489435,0.487937,0.486519,0.485243,0.484009,0.482825,0.481743,0.480608,0.479448,0.478378,0.477302,0.476193,0.475120,0.474076,0.473084,0.472176,0.471224,0.470273,0.469485,0.468583,0.467690,0.466799,0.465994,0.465155,0.464290,0.463371,0.462355,0.461391,0.460554,0.459730,0.458922,0.458104,0.457294,0.456508,0.455714,0.454894,0.454096,0.453330,0.452565,0.451737,0.450909,0.450220,0.449421,0.448727,0.447903,0.447082,0.446269,0.445497,0.376937,0.377222,0.377509,0.377801,0.378117,0.378434,0.378750,0.379067,0.379386,0.379704,0.380022,0.380342,0.380759,0.381187,0.381626,0.382069,0.382513,0.382958,0.383306,0.383638,0.383973,0.384315,0.384714,0.385112,0.385056,0.385605,0.385764,0.385922,0.386081,0.386239,0.386421,0.386605,0.386780,0.386951,0.387123,0.387293,0.387462,0.387562,0.387662,0.387763,0.387870,0.397063,0.397042,0.397019,0.396997,0.396974,0.396952,0.396931,0.396902,0.396838,0.396770,0.396704,0.396638,0.430144,0.765200,0.764876,0.764569,0.764296,0.764084,0.763890,0.763762,0.763689,0.763611,0.763617,0.763662,0.763712,0.763873,0.764079,0.764296,0.764630,0.764988,0.765406,0.765932,0.766576,0.767299,0.768081,0.769050,0.386479,0.771403,0.772921,0.774915,0.777714,0.784727,4.999886,4.999886,4.999886,4.999886,4.999886,4.999886,4.999886,4.999886,4.999886,4.999886,4.999886,4.999886,4.999886,4.999886,4.999886,4.999886,4.999886,4.999886,4.999886,4.999886,4.999886,4.999886,4.999886,4.999886,4.999886,4.999886,4.999886,4.999886,4.999886,4.999886,4.999886,4.999886,4.999886,4.999886,4.999886,4.999886,4.999886,0.371219,0.370115,0.369003,0.368003,0.367343,0.366527,0.365274,0.364480,0.363615,0.362950,0.362189,0.361477,0.360952,0.360309,0.359477,0.358648,0.358106,0.357434,0.356740,0.356055,0.355447,0.354841,0.354289,0.353740,0.353187,0.352642,0.352111,0.351583,0.351056,0.350531,0.350007,0.349507,0.349026,0.348547,0.348069,0.347592,0.347105,0.346456,0.345881,0.345439,0.344997,0.344493,0.343968,0.343467,0.343058,0.342585,0.342094,0.341602,0.341116,0.340660,0.340178,0.339676,0.339174,0.338674,0.338175,0.337687,0.337209,0.336764,0.336321,0.335880,0.335438,0.334965,0.334456,0.333934,0.333449,0.333000,0.332554,0.332107,0.331663,0.331115,0.330562,0.330052,0.329615,0.329143,0.328654,0.328167,0.327682,0.327197,0.326740,0.326344,0.325949,0.325555,0.325162,0.324770,0.324346,0.323938,0.323613,0.323288,0.322966,0.322610,0.322232,0.321855,0.321478,0.321101,0.320719,0.320338,0.319960,0.319624,0.319289,0.318955,0.318617,0.318259,0.317902,0.317544,0.317190,0.316834,0.316470,0.316100,0.315714,0.315315,0.314917,0.314519,0.314123,0.313727,0.313345,0.312990,0.312635,0.312274,0.311915,0.311556,0.311197,0.310840,0.310484,0.310129,0.309777,0.309435,0.309105,0.308774,0.308444,0.308106,0.307767,0.307431,0.307095,0.306763,0.306460,0.306158,0.305855,0.305556,0.305256,0.304953,0.304643,0.304334,0.304061
4.999886,4.999886,4.999886,4.999886,4.999886,4.999886,4.999886,4.999886,4.999886,4.999886,4.999886,0.508391,0.504846,0.501521,0.499236,0.497314,0.495319,0.493666,0.492035,0.490594,0.489164,0.487760,0.486486,0.485315,0.484083,0.482943,0.481862,0.480782,0.479652,0.478564,0.477502,0.476459,0.475480,0.474510,0.473517,0.472642,0.471756,0.470802,0.469992,0.469233,0.468336,0.467440,0.466627,0.465833,0.465021,0.464146,0.463127,0.462351,0.461452,0.460613,0.459815,0.459014,0.458196,0.457404,0.456615,0.455831,0.455046,0.454277,0.453511,0.452749,0.452023,0.451365,0.450681,0.449876,0.449111,0.448339,0.447560,0.446784,0.445998,0.377123,0.377125,0.377444,0.377763,0.378083,0.378403,0.378722,0.379040,0.379358,0.379675,0.379995,0.380342,0.380781,0.381221,0.381664,0.382106,0.382550,0.382962,0.383294,0.383626,0.383981,0.384380,0.384779,0.384991,0.385059,0.385565,0.385723,0.385880,0.386051,0.386234,0.386419,0.386600,0.386771,0.386943,0.387114,0.387259,0.387360,0.387459,0.387566,0.387707,0.396694,0.396965,0.396943,0.396920,0.396898,0.396875,0.396857,0.396844,0.396791,0.396724,0.396659,0.765714,0.765289,0.764837,0.764491,0.764168,0.763862,0.763650,0.763439,0.763250,0.763161,0.763072,0.763045,0.763067,0.763117,0.763250,0.763422,0.763611,0.763923,0.764252,0.764603,0.765133,0.765663,0.766380,0.767131,0.767991,0.386662,0.770140,0.771579,0.773286,0.775505,0.779222,4.999886,4.999886,4.999886,4.999886,4.999886,4.999886,4.999886,4.999886,4.999886,4.999886,4.999886,4.999886,4.999886,4.999886,4.999886,4.999886,4.999886,4.999886,4.999886,4.999886,4.999886,4.999886,4.999886,4.999886,4.999886,4.999886,4.999886,4.999886,4.999886,4.999886,4.999886,4.999886,4.999886,4.999886,4.999886,4.999886,4.999886,4.999886,4.999886,4.999886,0.372488,0.369099,0.368017,0.367161,0.365931,0.364929,0.364251,0.363612,0.362845,0.361705,0.361163,0.360425,0.359590,0.358762,0.358087,0.357484,0.356885,0.356286,0.355569,0.354852,0.354300,0.353749,0.353183,0.352630,0.352099,0.351571,0.351045,0.350537,0.350068,0.349416,0.348936,0.348457,0.347978,0.347502,0.346851,0.346202,0.345657,0.345216,0.344688,0.344161,0.343637,0.343169,0.342675,0.342187,0.341734,0.341281,0.340822,0.340282,0.339791,0.339302,0.338814,0.338328,0.337832,0.337305,0.336861,0.336417,0.335974,0.335534,0.335033,0.334529,0.334008,0.333489,0.332971,0.332515,0.332069,0.331621,0.331067,0.330514,0.329964,0.329454,0.328988,0.328536,0.328086,0.327637,0.327190,0.326665,0.326230,0.325835,0.325442,0.325049,0.324652,0.324211,0.323771,0.323434,0.323111,0.322788,0.322411,0.322033,0.321657,0.321281,0.320906,0.320526,0.320147,0.319809,0.319473,0.319138,0.318804,0.318469,0.318112,0.317754,0.317398,0.317043,0.316688,0.316334,0.315982,0.315599,0.315200,0.314831,0.314473,0.314116,0.313760,0.313404,0.313050,0.312696,0.312337,0.311977,0.311618,0.311260,0.310902,0.310547,0.310193,0.309840,0.309494,0.309163,0.308833,0.308505,0.308175,0.307845,0.307508,0.307172,0.306837,0.306532,0.306230,0.305928,0.305628,0.305328,0.305028,0.304729,0.304426,0.304150
